ply
format ascii 1.0
comment author: Greg Turk
comment object: another cube
element vertex 1035
property float x
property float y
property float z
property uchar red
property uchar green
property uchar blue
end_header
-0.066009 -0.5848479 -0.5093027 129 129 129
-0.08942701 -0.7246934 -0.3429032 87 87 87
0.08689393 -0.7778499 -0.4252023 108 108 108
-0.31042755 -0.6891831 -0.8492889 216 216 216
-0.2445622 -0.6714984 -1.1721622 298 298 298
0.010879353 -0.7561085 -0.17789711 45 45 45
-0.13392907 -0.73328316 -0.28433275 72 72 72
0.14431073 -0.41426656 -0.724307 184 184 184
0.27824742 -0.80001056 -0.6059539 154 154 154
-0.004319325 -0.7483852 -0.15515463 39 39 39
0.0818456 -0.7551266 -0.47434175 120 120 120
0.32176614 -0.44985488 -0.8328951 212 212 212
0.24439487 -0.5157032 -0.63695645 162 162 162
0.375469 -0.63888454 -1.5911226 405 405 405
0.26413712 -0.4298521 -0.61066043 155 155 155
0.10594472 -0.7192694 -0.55743504 142 142 142
0.110951215 -0.7396097 -0.28033793 71 71 71
-0.047118276 -0.58883774 -0.63418555 161 161 161
0.026844919 -0.74973816 -0.17440143 44 44 44
0.0021122694 -0.7528331 -0.18733075 47 47 47
0.15814328 -0.6539283 -0.69852877 178 178 178
0.1731095 -0.5976435 -0.51423347 131 131 131
0.17507875 -0.6150427 -0.48106596 122 122 122
0.13779822 -0.4146122 -0.6460731 164 164 164
0.36226532 -0.7086357 -0.6654434 169 169 169
0.26538172 -0.7229316 -0.57690156 147 147 147
0.13422856 -0.3729623 -0.6477561 165 165 165
0.25390753 -0.3826255 -0.6162027 157 157 157
0.1640315 -0.46407902 -0.65413165 166 166 166
0.15310222 -0.42155817 -0.639701 163 163 163
0.2678859 -0.4783178 -0.62595403 159 159 159
0.16262567 -0.42923024 -0.6452364 164 164 164
0.21130392 -0.5374598 -0.6453469 164 164 164
0.20504162 -0.37685373 -0.62578154 159 159 159
0.15968123 -0.412255 -0.6456071 164 164 164
0.14692768 -0.60370356 -0.49736705 126 126 126
0.10701123 -0.6028029 -0.5004233 127 127 127
0.041894495 -0.714798 -0.7058593 179 179 179
0.19857684 -0.6090074 -0.6566273 167 167 167
0.1576899 -0.61559224 -0.6985557 178 178 178
-0.031456202 -0.7320136 -0.53073394 135 135 135
0.18709752 -0.6995043 -0.78830516 201 201 201
-0.048435688 -0.5921248 -0.5149313 131 131 131
0.10529119 -0.49583623 -0.6731161 171 171 171
-0.05959454 -0.4818346 -0.694993 177 177 177
0.3840967 -0.64875305 -1.6346005 416 416 416
0.16855791 -0.5367075 -0.6644621 169 169 169
0.1495643 -0.5550461 -0.6807312 173 173 173
0.051306367 -0.7396412 -0.30341312 77 77 77
-0.03097567 -0.7405627 -0.30094424 76 76 76
0.09647325 -0.7397692 -0.32328972 82 82 82
0.098086834 -0.7253929 -0.498391 127 127 127
0.07607022 -0.7325435 -0.38879606 99 99 99
0.014066517 -0.74705094 -0.20720589 52 52 52
0.095186055 -0.7295613 -0.48685238 124 124 124
0.118400365 -0.7315254 -0.48038587 122 122 122
0.052276254 -0.74406147 -0.24677765 62 62 62
-0.09910332 -0.75209093 -0.129441 33 33 33
0.055293977 -0.7396157 -0.3167852 80 80 80
0.103425294 -0.63418424 -0.5027864 128 128 128
0.1310913 -0.7389317 -0.7073376 180 180 180
0.09897822 -0.7290871 -0.5173824 131 131 131
0.053296298 -0.72937274 -0.53913045 137 137 137
0.15771347 -0.4801852 -0.6683446 170 170 170
0.20237514 -0.6796485 -0.8284117 211 211 211
0.1617955 -0.4415777 -0.6426697 163 163 163
0.22648123 -0.37342346 -0.62222445 158 158 158
0.1362229 -0.44707197 -0.658798 167 167 167
0.22877076 -0.5068036 -0.6520885 166 166 166
0.11420664 -0.46403974 -0.6625445 168 168 168
0.1616436 -0.4784168 -0.64629984 164 164 164
0.21355304 -0.6199179 -0.64078915 163 163 163
0.13730639 -0.43057215 -0.66860044 170 170 170
0.1356175 -0.69821703 -0.69179773 176 176 176
0.030415684 -0.7420122 -0.3061311 78 78 78
0.14590394 -0.43334967 -0.65242004 166 166 166
0.12563336 -0.7175827 -0.6850182 174 174 174
0.1618489 -0.6482734 -0.68198335 173 173 173
0.29536882 -0.698307 -1.0009711 255 255 255
0.110746175 -0.48131 -0.67089987 171 171 171
0.43107256 -0.54206216 -1.5728157 401 401 401
-0.027833343 -0.5451799 -0.69689596 177 177 177
0.15208396 -0.45802677 -0.6524459 166 166 166
-0.06647773 -0.5931231 -0.6912439 176 176 176
-0.1164168 -0.59144145 -0.52445006 133 133 133
-0.0718389 -0.5901867 -0.6017617 153 153 153
0.16341472 -0.7238779 -0.66097736 168 168 168
0.116090626 -0.38564378 -0.650975 165 165 165
0.12815559 -0.45822287 -0.6561836 167 167 167
0.115851045 -0.475726 -0.66568637 169 169 169
0.14196295 -0.4904595 -0.66072476 168 168 168
-0.10322447 -0.7359568 -0.6993499 178 178 178
-0.13466991 -0.7109676 -0.7106875 181 181 181
-0.13226102 -0.6992216 -0.82756424 211 211 211
0.14693049 -0.66882 -0.67588246 172 172 172
0.011268139 -0.7293742 -0.46808842 119 119 119
-0.15750167 -0.7402251 -0.27190727 69 69 69
-0.08982627 -0.589932 -0.5879766 149 149 149
-0.15049711 -0.7191603 -0.55951095 142 142 142
0.08456692 -0.73740315 -0.3390009 86 86 86
-0.12711677 -0.7404293 -0.29268256 74 74 74
0.47197583 -0.5593715 -1.5970223 407 407 407
0.10082975 -0.609164 -0.51560795 131 131 131
-0.16442148 -0.74152833 -0.5568942 142 142 142
-0.13710606 -0.7126531 -0.71020544 181 181 181
-0.1090578 -0.6803125 -0.98271394 250 250 250
-0.15266924 -0.744505 -0.2604674 66 66 66
-0.17239876 -0.749634 -0.23241606 59 59 59
-0.18445523 -0.7530406 -0.15124857 38 38 38
-0.051716447 -0.6075475 -0.5868254 149 149 149
-0.03008324 -0.7324717 -0.5121281 130 130 130
-0.082874686 -0.73599815 -0.40752617 103 103 103
0.39399675 -0.5687633 -1.6030014 408 408 408
0.16212747 -0.66192955 -0.70673454 180 180 180
0.08400741 -0.7338857 -0.35459843 90 90 90
0.011852562 -0.7145591 -0.64336765 164 164 164
-0.13792561 -0.70031476 -0.82941496 211 211 211
-0.19030318 -0.718439 -0.8027779 204 204 204
-0.12211102 -0.54752153 -0.8022908 204 204 204
-0.21311313 -0.7097876 -0.71491706 182 182 182
-0.19187464 -0.7348355 -0.3952336 100 100 100
-0.20125982 -0.7422626 -0.3792102 96 96 96
-0.19845472 -0.74630535 -0.23329741 59 59 59
-0.20906132 -0.72441536 -0.39593914 100 100 100
-0.19193643 -0.72452366 -0.4355143 111 111 111
-0.2102481 -0.74058867 -0.26300213 67 67 67
-0.23666365 -0.7444004 -0.27891713 71 71 71
-0.2126356 -0.7420098 -0.22752044 58 58 58
-0.23297027 -0.73954237 -0.29102245 74 74 74
-0.18909706 -0.7415941 -0.2702954 68 68 68
-0.19039893 -0.74745727 -0.23774156 60 60 60
-0.16931704 -0.7443677 -0.26250428 66 66 66
-0.19906914 -0.7372472 -0.43938193 112 112 112
-0.2121348 -0.73306096 -0.25854975 65 65 65
-0.018345237 -0.7531734 -0.12496707 31 31 31
-0.27401888 -0.7392931 -0.4254658 108 108 108
0.1498361 -0.6080253 -0.47588494 121 121 121
-0.049319327 -0.74323606 -0.36717448 93 93 93
-0.24582985 -0.7494458 -0.24235752 61 61 61
0.01949194 -0.74217737 -0.23149729 59 59 59
-0.16167794 -0.7478391 -0.2339676 59 59 59
-0.14843336 -0.7487118 -0.25425127 64 64 64
0.13065729 -0.45850223 -0.656796 167 167 167
-0.21126398 -0.7214725 -0.78432024 200 200 200
-0.2542597 -0.73481405 -0.4931607 125 125 125
-0.2208439 -0.7428735 -0.22883087 58 58 58
-0.09996179 -0.70807254 -0.82502604 210 210 210
0.12858471 -0.4866108 -0.659623 168 168 168
0.0036433637 -0.71973294 -0.6230265 158 158 158
0.12741438 -0.3715388 -0.65585876 167 167 167
0.5038848 -0.5297494 -1.5959435 406 406 406
-0.0635414 -0.7433943 -0.29057607 74 74 74
-0.016192704 -0.74595046 -0.31059435 79 79 79
-0.096023634 -0.7430316 -0.2771328 70 70 70
-0.03661436 -0.7293804 -0.53143406 135 135 135
-0.0031268597 -0.7318299 -0.6111057 155 155 155
0.10982594 -0.7250417 -0.55773604 142 142 142
-0.10097824 -0.741183 -0.27986613 71 71 71
-0.0658735 -0.74025273 -0.35585824 90 90 90
-0.028541505 -0.73831093 -0.3077009 78 78 78
-0.09806472 -0.72207546 -0.6835698 174 174 174
-0.035412163 -0.4655074 -0.69508004 177 177 177
-0.12843631 -0.7067814 -0.67442083 171 171 171
0.108950794 -0.53766364 -1.4112952 359 359 359
-0.15581639 -0.7158987 -0.6918721 176 176 176
-0.033012033 -0.58100605 -0.6799514 173 173 173
-0.09331228 -0.5954311 -0.5836619 148 148 148
-0.20294693 -0.7035405 -0.7717942 196 196 196
-0.19454074 -0.7476544 -0.17163795 43 43 43
-0.30878872 -0.74398875 -0.19565117 49 49 49
-0.2595678 -0.73704654 -0.349925 89 89 89
-0.19197895 -0.7238748 -0.3816481 97 97 97
-0.3202361 -0.74627614 -0.19327524 49 49 49
-0.1926567 -0.7307921 -0.42126998 107 107 107
-0.16316672 -0.72143644 -0.5302988 135 135 135
-0.2721693 -0.73240733 -0.38470498 98 98 98
-0.31291997 -0.72440696 -0.46141598 117 117 117
-0.1897583 -0.74929607 -0.238489 60 60 60
-0.20599604 -0.72751725 -0.39145234 99 99 99
-0.30829445 -0.747241 -0.19215298 48 48 48
-0.2606557 -0.7382419 -0.27114752 69 69 69
-0.20273528 -0.73396105 -0.378199 96 96 96
-0.28095585 -0.73435795 -0.2066871 52 52 52
-0.21146101 -0.74409556 -0.21590135 55 55 55
-0.2601854 -0.73360485 -0.35766003 91 91 91
-0.31862846 -0.7458022 -0.18593147 47 47 47
-0.15832914 -0.74357843 -0.26717526 68 68 68
-0.17548901 -0.73723453 -0.3116552 79 79 79
-0.15070325 -0.6909397 -0.8184608 208 208 208
-0.11401707 -0.68495744 -1.0153786 258 258 258
-0.09101564 -0.64698964 -1.1667728 297 297 297
-0.20055051 -0.7463149 -0.35994938 91 91 91
-0.25003782 -0.7394398 -0.3748624 95 95 95
-0.27699792 -0.74663293 -0.20980102 53 53 53
0.13564557 -0.39843398 -0.64752364 165 165 165
-0.24441072 -0.73754233 -0.29261425 74 74 74
-0.19760987 -0.7348938 -0.36373487 92 92 92
0.15401816 -0.3891095 -0.6496588 165 165 165
-0.24590173 -0.73875606 -0.25686634 65 65 65
0.12481278 -0.393037 -0.6542498 166 166 166
-0.111466974 -0.7495843 -0.27020094 68 68 68
-0.2849998 -0.72731346 -0.45951602 117 117 117
-0.0017423332 -0.7447337 -0.2836432 72 72 72
-0.19320333 -0.73220086 -0.3710626 94 94 94
-0.13046162 -0.70067465 -0.9084829 231 231 231
-0.27007788 -0.74434066 -0.21057883 53 53 53
-0.1984123 -0.7037718 -0.83933544 214 214 214
0.4006354 -0.5261112 -1.5423071 393 393 393
-0.08400552 -0.73968923 -0.3486468 88 88 88
-0.21056446 -0.7430148 -0.25168538 64 64 64
-0.15109263 -0.6993265 -0.870643 222 222 222
-0.2092309 -0.7394538 -0.2577604 65 65 65
-0.19168305 -0.70075446 -0.888716 226 226 226
-0.23933458 -0.7413677 -0.2586679 65 65 65
-0.3078319 -0.74205863 -0.16992551 43 43 43
-0.14744754 -0.70069253 -0.94149256 240 240 240
-0.2900378 -0.74031174 -0.22594318 57 57 57
-0.28963727 -0.7408417 -0.21876708 55 55 55
-0.13989317 -0.70311505 -0.77709556 198 198 198
-0.30819073 -0.72312903 -0.47649828 121 121 121
-0.13997406 -0.7395636 -0.2695424 68 68 68
-0.16539182 -0.6746454 -1.386878 353 353 353
-0.23378855 -0.70640963 -0.83617663 213 213 213
0.16786909 -0.71902 -0.6584079 167 167 167
0.025604397 -0.74965304 -0.19182512 48 48 48
-0.20493996 -0.7403897 -0.303377 77 77 77
-0.0734396 -0.75609875 -0.1009275 25 25 25
-0.023511052 -0.7529536 -0.11684844 29 29 29
-0.06769222 -0.75140774 -0.120319694 30 30 30
-0.113568336 -0.6985442 -0.3814818 97 97 97
-0.19745111 -0.75062454 -0.17236137 43 43 43
-0.3650074 -0.74634093 -0.34228274 87 87 87
-0.31958023 -0.747313 -0.18389186 46 46 46
-0.19228777 -0.73191047 -0.4201683 107 107 107
-0.34609723 -0.75387657 -0.1900914 48 48 48
-0.36322784 -0.7541636 -0.18313313 46 46 46
-0.3501469 -0.7524604 -0.1868468 47 47 47
-0.19408922 -0.7460381 -0.14271742 36 36 36
-0.0802768 -0.7496414 -0.1993505 50 50 50
-0.12439263 -0.750806 -0.20330131 51 51 51
-0.21553683 -0.7294694 -0.42065373 107 107 107
0.05973512 -0.731357 -0.3122572 79 79 79
-0.19305477 -0.7326777 -0.47028223 119 119 119
-0.13239175 -0.7447517 -0.25775632 65 65 65
-0.32377 -0.7461412 -0.26384923 67 67 67
-0.023878753 -0.75557876 -0.12792245 32 32 32
-0.062485024 -0.734164 -0.36222354 92 92 92
-0.22639254 -0.73905593 -0.28917083 73 73 73
-0.19378474 -0.7497006 -0.22914681 58 58 58
0.12290132 -0.73802066 -0.34457585 87 87 87
-0.017242163 -0.75699615 -0.113969445 29 29 29
-0.08555202 -0.75055885 -0.1211257 30 30 30
-0.09867655 -0.73283935 -0.38796517 98 98 98
-0.036542416 -0.7569047 -0.12081644 30 30 30
-0.2936492 -0.7516669 -0.1688846 43 43 43
-0.0718656 -0.744399 -0.1976493 50 50 50
0.27141318 -0.72618854 -0.567943 144 144 144
-0.24162751 -0.74336255 -0.288854 73 73 73
-0.22225332 -0.7440788 -0.24914601 63 63 63
-0.06464706 -0.7522085 -0.10826549 27 27 27
0.036433607 -0.75607324 -0.18007937 45 45 45
0.14757383 -0.6857008 -1.15117 293 293 293
-0.36120343 -0.7498888 -0.26089972 66 66 66
-0.24798654 -0.74429154 -0.23566622 60 60 60
0.09119487 -0.7409859 -0.3121315 79 79 79
-0.09737608 -0.7545388 -0.102666676 26 26 26
-0.26169226 -0.7481716 -0.30618396 78 78 78
0.5639285 -0.65207064 -1.7435433 444 444 444
-0.19123718 -0.7439244 -0.14271334 36 36 36
-0.11363833 -0.7226923 -0.6435617 164 164 164
-0.14989382 -0.71904767 -0.5749506 146 146 146
-0.1983876 -0.7342805 -0.39240316 100 100 100
0.0496096 -0.7354707 -0.69643307 177 177 177
0.16991651 -0.5997968 -0.6570529 167 167 167
-0.26918292 -0.73336285 -0.3145124 80 80 80
-0.10813105 -0.6991453 -0.99094355 252 252 252
0.22869971 -0.5951537 -0.669719 170 170 170
-0.061948597 -0.5932859 -1.2778842 325 325 325
-0.14520863 -0.71543837 -0.34873065 88 88 88
-0.16397765 -0.7367082 -0.31476673 80 80 80
-0.18971492 -0.74322414 -0.1359972 34 34 34
-0.14487413 -0.73460484 -0.27179977 69 69 69
0.12180218 -0.41766825 -0.6523204 166 166 166
-0.053624034 -0.73824966 -0.3453891 88 88 88
-0.1408157 -0.74050486 -0.28246838 72 72 72
-0.2366883 -0.74979204 -0.14603761 37 37 37
0.3604217 -0.6368902 -1.638464 417 417 417
0.12786981 -0.6449223 -0.4969472 126 126 126
-0.12558983 -0.7565932 -0.07796016 19 19 19
-0.009896964 -0.7527453 -0.12245247 31 31 31
-0.14206764 -0.76166105 -0.082529485 21 21 21
-0.38870344 -0.7553103 -0.1762763 44 44 44
-0.22759101 -0.75089765 -0.10301918 26 26 26
-0.15215802 -0.7605274 -0.093067646 23 23 23
-0.10610853 -0.7510828 -0.10025498 25 25 25
-0.2789875 -0.7465712 -0.20890439 53 53 53
-0.3545823 -0.7579021 -0.15936181 40 40 40
-0.33838075 -0.7535541 -0.2655591 67 67 67
0.23299238 -0.50694644 -0.61638546 157 157 157
0.33852914 -0.6105207 -1.5066814 384 384 384
0.09129387 -0.70163274 -0.5286286 134 134 134
-0.03514175 -0.5856066 -0.6700595 170 170 170
0.2566215 -0.47021824 -0.6050609 154 154 154
0.1581701 -0.4223023 -0.632955 161 161 161
0.20446745 -0.5288245 -0.6316084 161 161 161
0.18854132 -0.37080723 -0.59412277 151 151 151
0.15295789 -0.40581608 -0.6293598 160 160 160
0.18586677 -0.5962976 -0.6338319 161 161 161
-0.05441445 -0.7008723 -0.4700911 119 119 119
0.1636306 -0.6803681 -0.74602747 190 190 190
0.10067052 -0.48622525 -0.65310174 166 166 166
0.34979102 -0.62036425 -1.5658796 399 399 399
0.145105 -0.54705036 -0.6715503 171 171 171
0.043879986 -0.72820437 -0.2912069 74 74 74
-0.033651933 -0.7330951 -0.2941239 75 75 75
0.088609934 -0.7121159 -0.4811635 122 122 122
0.065651774 -0.71936774 -0.37129122 94 94 94
0.086915195 -0.752376 -0.6110657 155 155 155
0.14808244 -0.47198522 -0.647276 165 165 165
0.15842295 -0.43585372 -0.6343448 161 161 161
0.12660736 -0.43894702 -0.637325 162 162 162
0.1557487 -0.4708256 -0.6324543 161 161 161
0.12636948 -0.4213156 -0.64358944 164 164 164
0.13369846 -0.68964344 -0.68727297 175 175 175
0.1410403 -0.42590714 -0.63880867 162 162 162
0.20489952 -0.40309376 -0.60590464 154 154 154
0.14993921 -0.6334338 -0.66009086 168 168 168
0.10469338 -0.47320262 -0.65371037 166 166 166
0.4109116 -0.52068335 -1.5363176 391 391 391
0.14414555 -0.45034176 -0.637054 162 162 162
-0.067118734 -0.58468187 -0.6871243 175 175 175
-0.11411314 -0.58602417 -0.5272414 134 134 134
0.0793038 -0.71508235 -0.5262897 134 134 134
0.12726694 -0.45129034 -0.65073144 165 165 165
0.13968733 -0.43707204 -0.6302462 160 160 160
0.14204943 -0.48228893 -0.65967244 168 168 168
-0.14383963 -0.6717018 -0.5413245 138 138 138
-0.13497198 -0.7038983 -0.70747495 180 180 180
-0.14393407 -0.6767422 -0.76790565 195 195 195
0.14838266 -0.66333985 -0.6805412 173 173 173
0.007949322 -0.72064024 -0.46092212 117 117 117
-0.13431253 -0.709144 -0.7237539 184 184 184
-0.15355992 -0.7357675 -0.25173354 64 64 64
-0.1838579 -0.7465065 -0.1452545 37 37 37
-0.048489794 -0.6033655 -0.573919 146 146 146
-0.053226575 -0.69656575 -0.4478194 114 114 114
-0.08488132 -0.7258533 -0.40056908 102 102 102
0.076374054 -0.7230447 -0.34244978 87 87 87
-0.1922585 -0.70232886 -0.7784973 198 198 198
-0.21166228 -0.71230805 -0.74744153 190 190 190
-0.20509413 -0.72985405 -0.41302836 105 105 105
-0.23546967 -0.7377875 -0.27281985 69 69 69
-0.16773555 -0.73958725 -0.25924656 66 66 66
-0.19915557 -0.72990453 -0.43389583 110 110 110
-0.053502128 -0.729913 -0.35297728 90 90 90
-0.24438004 -0.7400297 -0.23295972 59 59 59
-0.24617597 -0.71956515 -0.51980835 132 132 132
-0.2543246 -0.7247239 -0.48319328 123 123 123
0.12411356 -0.4806212 -0.64675814 164 164 164
0.1281574 -0.36202753 -0.6500238 165 165 165
-0.09710051 -0.734818 -0.26969147 68 68 68
-0.061346427 -0.69390464 -0.46139014 117 117 117
0.06943491 -0.7237767 -0.3772447 96 96 96
0.09455624 -0.7050822 -0.5303288 135 135 135
-0.1428676 -0.65681374 -0.5130883 130 130 130
-0.15435365 -0.7140702 -0.70461506 179 179 179
-0.19206163 -0.74616134 -0.17036179 43 43 43
-0.25680423 -0.7354226 -0.35139138 89 89 89
-0.27100396 -0.7321032 -0.38760936 98 98 98
-0.31254116 -0.72507334 -0.46755958 119 119 119
-0.20351891 -0.72819567 -0.39766014 101 101 101
-0.25821194 -0.73852426 -0.2719711 69 69 69
-0.20017815 -0.7334755 -0.3808971 97 97 97
-0.25817326 -0.7336149 -0.36048245 91 91 91
-0.15892763 -0.7362931 -0.25993377 66 66 66
-0.17342746 -0.7342863 -0.31015033 79 79 79
-0.19991523 -0.74105686 -0.3565218 90 90 90
0.13236162 -0.3899344 -0.6378701 162 162 162
-0.19690356 -0.7308893 -0.36085993 92 92 92
0.12248036 -0.38447666 -0.64468485 164 164 164
-0.11146736 -0.7417105 -0.2644306 67 67 67
-0.28396383 -0.7262661 -0.46307802 118 118 118
-0.0065446496 -0.7329681 -0.27378815 69 69 69
-0.1904538 -0.7327273 -0.37591976 95 95 95
0.40569183 -0.5088892 -1.5675051 399 399 399
-0.20857267 -0.7370029 -0.24546462 62 62 62
-0.018763125 -0.7381675 -0.20686302 52 52 52
-0.23731901 -0.74159837 -0.2610125 66 66 66
-0.28718877 -0.7426881 -0.21992302 56 56 56
-0.048118845 -0.58863777 -0.5840396 148 148 148
-0.12630965 -0.74112993 -0.19474521 49 49 49
-0.19361387 -0.72516775 -0.46334434 118 118 118
-0.13137206 -0.7403424 -0.254668 64 64 64
-0.19316763 -0.7420331 -0.2226986 56 56 56
-0.09767394 -0.7289672 -0.3867774 98 98 98
-0.07171762 -0.74029183 -0.19455257 49 49 49
-0.2211383 -0.7384248 -0.24358368 62 62 62
-0.18880065 -0.7443929 -0.14219046 36 36 36
-0.010182947 -0.67422515 -0.54776525 139 139 139
-0.13397773 -0.53955793 -0.7916915 201 201 201
-0.18497261 -0.74872065 -0.14021268 35 35 35
-0.23535874 -0.7457281 -0.14186615 36 36 36
-0.032099813 -0.66779387 -0.52665204 134 134 134
-0.04423654 -0.5981838 -0.5364009 136 136 136
-0.14331664 -0.7519142 -0.07568458 19 19 19
-0.22423728 -0.7510996 -0.10264364 26 26 26
-0.30800796 -0.73105997 -0.46589845 118 118 118
-0.15447295 -0.7480617 -0.08310881 21 21 21
0.15912354 -0.67691875 -0.76667184 195 195 195
-0.3352443 -0.7386184 -0.2496826 63 63 63
-0.0030946136 -0.6046623 -0.6258739 159 159 159
-0.12869506 -0.6530975 -0.67623305 172 172 172
0.23330739 -0.59363294 -0.6644378 169 169 169
0.14016116 -0.36119744 -0.6285815 160 160 160
-0.029044077 -0.617636 -0.533405 136 136 136
-0.16586009 -0.7495056 -0.07954711 20 20 20
-0.16268083 -0.75349265 -0.06324178 16 16 16
-0.025120527 -0.5974019 -0.7030242 179 179 179
-0.2152259 -0.7375488 -0.2848177 72 72 72
-0.19481483 -0.7396412 -0.25176743 64 64 64
-0.17219755 -0.7334423 -0.1727444 44 44 44
-0.21312276 -0.7460029 -0.18417245 46 46 46
-0.02524966 -0.61456406 -0.5340143 136 136 136
0.15499872 -0.5132225 -0.6247419 159 159 159
-0.12781708 -0.4602276 -0.7541029 192 192 192
-0.27473307 -0.74199814 -0.18467906 47 47 47
0.12685803 -0.6066141 -0.6763244 172 172 172
-0.3152471 -0.73885846 -0.34000838 86 86 86
-0.18999243 -0.6722889 -1.0531893 268 268 268
-0.26613188 -0.72351104 -0.4621994 117 117 117
-0.15796232 -0.75075173 -0.039123684 9 9 9
-0.015774041 -0.73524463 -0.21224037 54 54 54
-0.19594648 -0.751738 -0.06340632 16 16 16
-0.303784 -0.7533245 -0.09666994 24 24 24
-0.24065132 -0.7553464 -0.07046938 17 17 17
-0.18470818 -0.7539849 -0.04697126 11 11 11
-0.15277587 -0.75229496 -0.051344126 13 13 13
0.1893282 -0.59023774 -0.6253078 159 159 159
0.15093812 -0.6050517 -0.6850336 174 174 174
0.17550296 -0.59667706 -0.5001954 127 127 127
0.14826176 -0.64672005 -0.71226174 181 181 181
-0.19201428 -0.75591576 -0.04548219 11 11 11
-0.19788995 -0.74615484 -0.15760264 40 40 40
-0.18475126 -0.68074656 -1.0844879 276 276 276
-0.24883807 -0.7173907 -0.5124427 130 130 130
-0.15001264 -0.52408326 -0.7449975 189 189 189
-0.3395231 -0.7527384 -0.10533345 26 26 26
-0.06578328 -0.72966385 -0.26605734 67 67 67
-0.24131538 -0.75453806 -0.056744963 14 14 14
-0.27853033 -0.74585176 -0.23083887 58 58 58
-0.28915513 -0.73846036 -0.2376745 60 60 60
-0.029089615 -0.65041894 -0.53313535 135 135 135
-0.12534298 -0.7517988 -0.07420018 18 18 18
-0.19633569 -0.73175824 -0.39353704 100 100 100
-0.21876699 -0.73456407 -0.23364738 59 59 59
-0.18834755 -0.7354145 -0.26439628 67 67 67
-0.14101171 -0.7337502 -0.32216823 82 82 82
0.11953041 -0.50509286 -0.6548834 166 166 166
-0.042397916 -0.5856997 -0.5699238 145 145 145
-0.14365193 -0.7525042 -0.068617135 17 17 17
-0.1786551 -0.6930454 -0.46519202 118 118 118
-0.13306789 -0.6518708 -0.51216483 130 130 130
-0.18826616 -0.72108984 -0.3784201 96 96 96
-0.3057539 -0.74648076 -0.1905604 48 48 48
-0.033126727 -0.5782201 -0.660482 168 168 168
0.09840846 -0.607366 -0.47599542 121 121 121
-0.14440715 -0.63910013 -0.74936247 191 191 191
-0.2856229 -0.74088085 -0.21076554 53 53 53
0.18751901 -0.6743821 -0.47118843 120 120 120
-0.23439792 -0.73166245 -0.27624214 70 70 70
-0.20107684 -0.7430887 -0.19734251 50 50 50
-0.06751895 -0.7299266 -0.34642482 88 88 88
0.11220935 -0.45638075 -0.6513289 166 166 166
-0.15634692 -0.7478372 -0.0624305 15 15 15
-0.19056228 -0.72211456 -0.4362958 111 111 111
-0.29009703 -0.7514254 -0.21211275 54 54 54
0.11129439 -0.46758026 -0.65092206 165 165 165
-0.16813895 -0.75072145 -0.23909774 60 60 60
0.12352604 -0.70149446 -0.6654494 169 169 169
-0.13802773 -0.6840514 -0.7580608 193 193 193
0.17159167 -0.56241006 -0.5850335 149 149 149
0.13980296 -0.3927931 -0.61696243 157 157 157
0.12732112 -0.48829347 -0.6607829 168 168 168
0.08396545 -0.71034867 -0.4883026 124 124 124
-0.14404677 -0.62439156 -0.7537738 192 192 192
-0.14460136 -0.62730813 -0.7786563 198 198 198
-0.18921944 -0.70398897 -0.9774702 249 249 249
0.16070524 -0.4569794 -0.6435608 164 164 164
0.1496973 -0.5916501 -0.43167228 110 110 110
-0.19416451 -0.73476183 -0.14874971 37 37 37
-0.20267688 -0.73306453 -0.30454093 77 77 77
-0.12878177 -0.65554357 -0.6815572 173 173 173
-0.108276755 -0.74871397 -0.08331102 21 21 21
-0.14777245 -0.67856276 -0.78336424 199 199 199
-0.16472396 -0.7536491 -0.014795229 3 3 3
-0.28197932 -0.7523591 -0.05203247 13 13 13
-0.2724725 -0.74742144 -0.23765606 60 60 60
-0.2037668 -0.73514867 -0.29965627 76 76 76
0.22661093 -0.36701417 -0.61448747 156 156 156
-0.15709567 -0.7562378 -0.021035135 5 5 5
0.11978179 -0.40913326 -0.64196676 163 163 163
0.13768712 -0.40842357 -0.6420424 163 163 163
-0.08090922 -0.7118443 -0.40661794 103 103 103
-0.18594092 -0.7551787 -0.053614855 13 13 13
-0.14467478 -0.74761677 -0.06531075 16 16 16
0.086597174 -0.72695947 -0.3091448 78 78 78
0.019177616 -0.7375208 -0.22804269 58 58 58
-0.14056359 -0.75320524 -0.03542456 9 9 9
-0.06834875 -0.74597985 -0.11573237 29 29 29
-0.099626854 -0.74680746 -0.12458381 31 31 31
-0.20477302 -0.7601559 -0.059216768 15 15 15
-0.123269856 -0.70921504 -0.6964599 177 177 177
-0.26727754 -0.7316674 -0.35149622 89 89 89
0.083500326 -0.71197546 -0.49176884 125 125 125
0.17476529 -0.61425495 -0.81138605 206 206 206
-0.08039737 -0.74920464 -0.10060781 25 25 25
0.084038526 -0.7259763 -0.32002634 81 81 81
-0.15352201 -0.75468 -0.010578275 2 2 2
-0.13122664 -0.5267878 -0.7538349 192 192 192
-0.3409217 -0.73676515 -0.25268653 64 64 64
-0.19173568 -0.75287175 -0.056733042 14 14 14
-0.20850514 -0.757499 -0.040062428 10 10 10
-0.29063982 -0.7473181 -0.20129752 51 51 51
0.047086865 -0.7195717 -0.2947573 75 75 75
0.32836208 -0.6867831 -0.6231153 158 158 158
-0.2634656 -0.76835847 -0.063429356 16 16 16
-0.29105368 -0.7446157 -0.162162 41 41 41
-0.14284234 -0.75355405 -0.02662167 6 6 6
0.13174027 -0.4979588 -0.6116817 155 155 155
0.028872073 -0.7294199 -0.37729424 96 96 96
-0.27272603 -0.7251722 -0.40590715 103 103 103
0.12926814 -0.5926084 -0.47675127 121 121 121
-0.028251171 -0.6487113 -0.52394634 133 133 133
-0.014756411 -0.47490814 -0.7384038 188 188 188
0.33021995 -0.5188388 -1.2891843 328 328 328
0.0015884936 -0.72953165 -0.18789193 47 47 47
-0.15588841 -0.7456999 -0.037334383 9 9 9
-0.07701714 -0.7461281 -0.092197806 23 23 23
-0.18975288 -0.7408254 -0.23181796 59 59 59
-0.15051897 -0.73820424 -0.25287244 64 64 64
-0.09388931 -0.7341664 -0.17984515 45 45 45
-0.037006527 -0.73126686 -0.1995317 50 50 50
-0.1033514 -0.731431 -0.2702701 68 68 68
-0.19074294 -0.7477402 -0.056138337 14 14 14
-0.1948036 -0.713231 -0.35974485 91 91 91
-0.34331685 -0.7532222 -0.19092068 48 48 48
-0.2881209 -0.7531194 -0.12055537 30 30 30
-0.24301557 -0.7417147 -0.26141462 66 66 66
0.13685223 -0.38142747 -0.6127681 156 156 156
0.022478193 -0.46949515 -0.7774587 198 198 198
-0.015909731 -0.4693852 -0.7103062 181 181 181
0.37178937 -0.54475135 -1.5630963 398 398 398
0.14043617 -0.36483163 -0.6510153 166 166 166
-0.3141026 -0.75275105 -0.09970251 25 25 25
-0.023979932 -0.54303896 -0.70703274 180 180 180
0.22821996 -0.61791515 -0.63315 161 161 161
0.14824513 -0.5585754 -0.61364925 156 156 156
-0.100901574 -0.58498764 -0.5562738 141 141 141
-0.19847547 -0.75834644 -0.05144295 13 13 13
-0.13234697 -0.7553066 -0.03843081 9 9 9
-0.03387609 -0.6016208 -0.5509667 140 140 140
0.31882516 -0.55105567 -1.5701487 400 400 400
-0.19955103 -0.74135387 -0.16211954 41 41 41
-0.23148136 -0.7580137 -0.03871718 9 9 9
-0.17062926 -0.75745714 -0.061712056 15 15 15
-0.16689318 -0.75528777 -0.014092311 3 3 3
-0.22816902 -0.7523419 -0.037803948 9 9 9
-0.17361784 -0.7376372 -0.26481044 67 67 67
-0.13532846 -0.46380156 -0.7213055 183 183 183
-0.094262734 -0.5816824 -0.5711006 145 145 145
-0.15193583 -0.723197 -0.70738256 180 180 180
-0.13648738 -0.6631016 -0.74178445 189 189 189
-0.18003698 -0.6905421 -0.39810914 101 101 101
-0.31615135 -0.7446233 -0.18157148 46 46 46
-0.34850365 -0.75555706 -0.098536104 25 25 25
-0.17855632 -0.7245982 -0.37246615 94 94 94
-0.08691792 -0.73361564 -0.18285286 46 46 46
-0.17734075 -0.70413256 -0.3754685 95 95 95
-0.31803113 -0.7349329 -0.31999242 81 81 81
-0.30563325 -0.7478107 -0.21705595 55 55 55
-0.18971568 -0.7387294 -0.2630568 67 67 67
-0.19519088 -0.711238 -0.5584765 142 142 142
0.13805941 -0.4009086 -0.6717823 171 171 171
-0.28824887 -0.7402488 -0.22516316 57 57 57
-0.26975492 -0.6940206 -1.2388339 315 315 315
0.16115251 -0.46439636 -0.6941025 176 176 176
-0.2401841 -0.6994119 -0.5037055 128 128 128
0.12067732 -0.43004286 -0.63611203 162 162 162
0.10874513 -0.37880877 -0.6285619 160 160 160
-0.11649619 -0.7564948 -0.071760535 18 18 18
0.14889136 -0.38748646 -0.62444013 159 159 159
-0.09956099 -0.73790085 -0.260293 66 66 66
0.13637224 -0.71792394 -0.70828635 180 180 180
0.33546868 -0.6084169 -1.5867856 404 404 404
-0.14621022 -0.7546287 -0.011541635 2 2 2
-0.13799967 -0.46032992 -0.7574095 193 193 193
-0.17775188 -0.6993559 -0.8384208 213 213 213
-0.22356847 -0.6304047 -1.1606565 295 295 295
-0.25140956 -0.7288599 -0.3650185 93 93 93
-0.2858288 -0.7371165 -0.35183918 89 89 89
-0.29015833 -0.74767685 -0.28958136 73 73 73
-0.27670178 -0.74224144 -0.20271727 51 51 51
-0.25167635 -0.7493995 -0.13020125 33 33 33
0.24395418 -0.51045525 -0.6290958 160 160 160
0.3562603 -0.6173998 -1.5612084 398 398 398
0.0928683 -0.70296776 -0.52960885 135 135 135
-0.035323486 -0.58750397 -0.6651354 169 169 169
0.2620384 -0.47255638 -0.61071444 155 155 155
0.1612688 -0.42380342 -0.6357367 162 162 162
0.20797998 -0.5303855 -0.6374222 162 162 162
0.15875748 -0.4065917 -0.6380153 162 162 162
0.18428388 -0.59784263 -0.62980735 160 160 160
0.15873724 -0.6788291 -0.73893476 188 188 188
0.3462789 -0.6215817 -1.5644987 398 398 398
0.14873397 -0.5497851 -0.67401576 171 171 171
0.047093138 -0.73038423 -0.29254374 74 74 74
-0.032111675 -0.7330705 -0.29241273 74 74 74
0.09365356 -0.7159868 -0.48621914 123 123 123
0.071269035 -0.72355974 -0.37690982 96 96 96
0.16230553 -0.43672323 -0.63891435 162 162 162
0.13167354 -0.44011748 -0.6440065 164 164 164
0.16195902 -0.4723747 -0.640659 163 163 163
0.1276856 -0.6869856 -0.6749644 172 172 172
0.14384434 -0.42759213 -0.64233744 163 163 163
0.21291348 -0.40532166 -0.6153991 156 156 156
0.15288693 -0.6370269 -0.66301167 169 169 169
0.10654947 -0.4737193 -0.65626466 167 167 167
0.15521815 -0.4528799 -0.6530584 166 166 166
-0.067306876 -0.58472896 -0.68507135 174 174 174
-0.11502081 -0.5847645 -0.52088606 132 132 132
0.14049178 -0.48370087 -0.6560334 167 167 167
-0.13820675 -0.68089706 -0.5798514 147 147 147
-0.13693254 -0.7006828 -0.6994574 178 178 178
-0.14775833 -0.6722975 -0.7575568 193 193 193
0.14838558 -0.6642641 -0.6797278 173 173 173
-0.15179743 -0.7355015 -0.24972034 63 63 63
-0.18124229 -0.7467121 -0.14440966 36 36 36
-0.05030474 -0.59941095 -0.57008636 145 145 145
-0.08545832 -0.724367 -0.4003292 102 102 102
0.07872012 -0.72411036 -0.34168157 87 87 87
-0.2056 -0.72558767 -0.40056184 102 102 102
-0.16683602 -0.738251 -0.2565187 65 65 65
-0.19999716 -0.72706103 -0.42928573 109 109 109
-0.10994241 -0.6901472 -0.39029023 99 99 99
-0.05370213 -0.7277844 -0.34826413 88 88 88
0.07182464 -0.7256875 -0.37856123 96 96 96
0.09691349 -0.70712864 -0.53257203 135 135 135
-0.1339095 -0.66904306 -0.5604547 142 142 142
-0.19032311 -0.74577457 -0.16911137 43 43 43
-0.20299175 -0.72592866 -0.39142206 99 99 99
-0.20034377 -0.72968376 -0.37406978 95 95 95
-0.2573917 -0.7306156 -0.35512748 90 90 90
-0.15739131 -0.73276114 -0.25449368 64 64 64
-0.1728985 -0.72974205 -0.30263665 77 77 77
0.13349107 -0.39173198 -0.6362783 162 162 162
-0.19565603 -0.73146206 -0.3614947 92 92 92
0.122814566 -0.38611177 -0.6431116 163 163 163
-0.004751116 -0.7340206 -0.27359125 69 69 69
-0.19066088 -0.7290616 -0.3664836 93 93 93
-0.20796543 -0.73405194 -0.24124455 61 61 61
-0.016339034 -0.7393093 -0.20696133 52 52 52
-0.23575047 -0.7406795 -0.25829488 65 65 65
-0.09640458 -0.7296302 -0.38816717 98 98 98
-0.07017656 -0.7407617 -0.19311821 49 49 49
-0.22057503 -0.7385916 -0.24370596 62 62 62
-0.18700625 -0.7439287 -0.14065826 35 35 35
-0.020478994 -0.6791266 -0.5658504 144 144 144
-0.037092105 -0.60344946 -0.55487454 141 141 141
-0.15019415 -0.75096846 -0.08526927 21 21 21
0.16736233 -0.6826128 -0.78464985 200 200 200
0.22713885 -0.5927829 -0.65291464 166 166 166
-0.04052706 -0.58757406 -0.6445639 164 164 164
0.17361012 -0.51972365 -0.6577563 167 167 167
-0.13683236 -0.45688713 -0.7114214 181 181 181
-0.11209467 -0.5890426 -0.52213264 133 133 133
0.18614802 -0.58989745 -0.61864436 157 157 157
0.14727646 -0.6038743 -0.67531085 172 172 172
0.16251859 -0.6536015 -0.7477752 190 190 190
-0.12201246 -0.7535031 -0.07385698 18 18 18
-0.19754143 -0.7263378 -0.3825514 97 97 97
-0.18707946 -0.7324524 -0.25873137 65 65 65
0.1336354 -0.51099133 -0.6867788 175 175 175
0.09251806 -0.6049423 -0.4642891 118 118 118
0.2027457 -0.68385696 -0.49406436 125 125 125
-0.2328518 -0.728046 -0.27050778 68 68 68
-0.19972797 -0.7405102 -0.19337946 49 49 49
-0.06564355 -0.73207533 -0.3485485 88 88 88
0.11025536 -0.45716733 -0.64587796 164 164 164
-0.1932924 -0.7120613 -0.41598478 106 106 106
-0.17033069 -0.7427987 -0.22684285 57 57 57
0.1327633 -0.7099525 -0.6841451 174 174 174
0.124902606 -0.4884267 -0.6531323 166 166 166
0.08606085 -0.71216464 -0.49033597 125 125 125
0.16308951 -0.45839155 -0.6468564 164 164 164
-0.10409947 -0.75209934 -0.085192025 21 21 21
-0.2027965 -0.73913467 -0.30469766 77 77 77
0.11869696 -0.410779 -0.63760984 162 162 162
1.8620505 -0.5059965 -2.6100593 665 665 665
-0.077873416 -0.7135426 -0.4097629 104 104 104
0.09416774 -0.7331809 -0.316991 80 80 80
-0.065047905 -0.7485951 -0.11646426 29 29 29
-0.12925664 -0.69799924 -0.6660689 169 169 169
0.0839344 -0.7117785 -0.48889437 124 124 124
0.08935085 -0.73086536 -0.3250567 82 82 82
0.35685325 -0.7019143 -0.6592467 168 168 168
0.022261322 -0.72139794 -0.3605471 91 91 91
0.12895095 -0.5937754 -0.47539398 121 121 121
-0.013431221 -0.66015685 -0.57473016 146 146 146
0.009173244 -0.7353273 -0.1934663 49 49 49
-0.07031454 -0.7526989 -0.09702852 24 24 24
-0.19328019 -0.71677434 -0.36882517 94 94 94
0.14915359 -0.3824984 -0.63351715 161 161 161
0.38048226 -0.5505848 -1.6020895 408 408 408
-0.030521184 -0.5400891 -0.6855587 174 174 174
-0.11082543 -0.57600987 -0.5178758 132 132 132
-0.029808879 -0.6036743 -0.5624814 143 143 143
0.26904878 -0.4251766 -0.6129526 156 156 156
0.15389141 -0.6089882 -0.47164467 120 120 120
0.1803768 -0.613287 -0.48541817 123 123 123
-0.07431254 -0.7520671 -0.09445462 24 24 24
0.034461334 -0.7440393 -0.1811826 46 46 46
-0.020822346 -0.74999225 -0.11372632 29 29 29
0.1074819 -0.7321167 -0.27112833 69 69 69
0.020015761 -0.7387296 -0.17869383 45 45 45
-0.10283157 -0.5759258 -0.537974 137 137 137
-0.15382317 -0.7127834 -0.6826236 174 174 174
-0.18069762 -0.68424517 -0.37650958 96 96 96
0.0038456917 -0.7425338 -0.15679577 39 39 39
0.118510455 -0.38042605 -0.64408374 164 164 164
0.02696158 -0.7464058 -0.1708057 43 43 43
-0.037630454 -0.74711156 -0.11164653 28 28 28
0.15037313 -0.3883183 -0.62373924 159 159 159
0.14065793 -0.7237539 -0.71609616 182 182 182
0.33573544 -0.6125181 -1.5963931 407 407 407
0.10296723 -0.59486055 -0.48264125 123 123 123
0.17006752 -0.65830064 -0.78226566 199 199 199
0.14354643 -0.6004056 -0.4596258 117 117 117
-0.17719893 -0.7299806 -0.2390964 60 60 60
-0.05257666 -0.75329745 -0.1017375 25 25 25
-0.008616149 -0.7481974 -0.11720422 29 29 29
-0.061924815 -0.7492273 -0.043675795 11 11 11
-0.14505899 -0.45756066 -0.71936846 183 183 183
0.15262088 -0.5596731 -0.66447556 169 169 169
-0.09135523 -0.725827 -0.4046087 103 103 103
0.0057865977 -0.741083 -0.19589987 49 49 49
0.04493946 -0.7318636 -0.23193234 59 59 59
1.686471 -0.48561737 -2.4386299 621 621 621
0.0014367402 -0.74575514 -0.18085134 46 46 46
-0.019765958 -0.7471696 -0.10460779 26 26 26
-0.06073743 -0.75096226 -0.10566327 26 26 26
-0.12641132 -0.7514241 -0.07879171 20 20 20
0.14644638 -0.70273817 -0.6839918 174 174 174
0.09917736 -0.7220214 -0.26750436 68 68 68
-0.094542466 -0.74923015 -0.09734836 24 24 24
0.10152158 -0.7311368 -0.49739596 126 126 126
0.0057472736 -0.7522382 -0.12541819 31 31 31
-0.053559512 -0.7350642 -0.28669694 73 73 73
0.027040243 -0.7382946 -0.17701888 45 45 45
0.12178475 -0.7368183 -0.24374843 62 62 62
0.025686875 -0.74935174 -0.13067445 33 33 33
0.11155388 -0.73756653 -0.27711737 70 70 70
-0.086920194 -0.7512084 -0.09346384 23 23 23
-0.06313582 -0.47069946 -0.67659736 172 172 172
-0.029996619 -0.5865888 -0.5910038 150 150 150
-0.11932427 -0.59521115 -0.5281222 134 134 134
0.33289027 -0.6056135 -1.618889 412 412 412
-0.1585855 -0.7353966 -0.24374947 62 62 62
0.16488174 -0.6065043 -0.53036046 135 135 135
-0.10691183 -0.73745376 -0.29585424 75 75 75
0.03068602 -0.74877214 -0.13794407 35 35 35
-0.013902709 -0.75407624 -0.12481311 31 31 31
0.23516002 -0.72635484 -0.3901458 99 99 99
-0.018109173 -0.7581697 -0.12970015 33 33 33
0.01972337 -0.7500962 -0.13578409 34 34 34
-0.19554158 -0.7387865 -0.16710877 42 42 42
0.113206506 -0.39355186 -0.63048923 160 160 160
-0.06502947 -0.72046274 -0.34368107 87 87 87
-0.11531513 -0.72992516 -0.36447015 92 92 92
-0.2302646 -0.7231653 -0.26945373 68 68 68
0.64749885 -0.6692463 -0.84861195 216 216 216
0.1823372 -0.44400012 -0.6574608 167 167 167
0.1974557 -0.4605404 -0.5881697 149 149 149
0.038618058 -0.7383516 -0.20022619 51 51 51
0.12605989 -0.6620681 -0.61122 155 155 155
0.12800384 -0.7066803 -0.4760373 121 121 121
-0.20766433 -0.7440343 -0.1490066 37 37 37
0.100283295 -0.59502864 -0.48395798 123 123 123
0.10728946 -0.718472 -0.4631841 118 118 118
4.9871206E-4 -0.7461103 -0.11863601 30 30 30
0.08700815 -0.7404713 -0.15466085 39 39 39
0.15723506 -0.67329454 -0.45234862 115 115 115
0.04519123 -0.7436104 -0.2143147 54 54 54
-0.12543976 -0.46267816 -0.6956785 177 177 177
-0.14701019 -0.742375 -0.24896896 63 63 63
0.657675 -0.6882276 -0.7660787 195 195 195
0.12880921 -0.7354778 -0.19958526 50 50 50
-0.14641601 -0.6547229 -0.7573446 193 193 193
-0.23883191 -0.73503095 -0.2801349 71 71 71
-0.111337 -0.7436285 -0.25868228 65 65 65
-0.15948221 -0.74343586 -0.23069835 58 58 58
0.13608521 -0.4540427 -0.66237307 168 168 168
0.2425895 -0.5165231 -0.6477635 165 165 165
0.20439956 -0.48480362 -0.65710044 167 167 167
0.15343836 -0.5201679 -0.6736667 171 171 171
-0.0048305243 -0.7356543 -0.1755535 44 44 44
0.03604783 -0.7467221 -0.31550947 80 80 80
0.6113578 -0.6733843 -0.9639057 245 245 245
-0.15541637 -0.74215007 -0.27556515 70 70 70
0.079285175 -0.7403172 -0.18404922 46 46 46
0.10294357 -0.6911378 -0.5214244 132 132 132
1.7291405 -0.5176171 -2.5630248 653 653 653
0.17567506 -0.6219222 -0.46585533 118 118 118
0.095587075 -0.70589024 -0.4835355 123 123 123
-0.07753534 -0.755753 -0.08663213 22 22 22
0.021820918 -0.7491498 -0.11437073 29 29 29
0.1307036 -0.5918897 -0.4687741 119 119 119
0.19307142 -0.5922306 -0.6482924 165 165 165
0.42307627 -0.6920568 -0.9346957 238 238 238
0.3797567 -0.7112477 -0.5235559 133 133 133
0.22189194 -0.730086 -0.3899757 99 99 99
0.1122548 -0.7471324 -0.16266769 41 41 41
0.055056512 -0.74794436 -0.14090821 35 35 35
0.12920567 -0.7461136 -0.16918612 43 43 43
0.13897225 -0.73851204 -0.18854493 48 48 48
0.12465212 -0.73642147 -0.16833633 42 42 42
0.12937713 -0.7549298 -0.16788232 42 42 42
-0.029890463 -0.72912985 -0.29820982 76 76 76
-0.004713565 -0.75970984 -0.018377095 4 4 4
0.103664964 -0.728233 -0.1779829 45 45 45
0.11981669 -0.47817326 -0.65766025 167 167 167
0.1585437 -0.6133081 -0.7528881 191 191 191
-0.13166124 -0.4508429 -0.6735244 171 171 171
-0.24386437 -0.7210436 -0.27876508 71 71 71
-0.24098276 -0.72878027 -0.2808012 71 71 71
0.17024574 -0.6209785 -0.48474005 123 123 123
0.21266708 -0.6586524 -0.49053565 125 125 125
-0.041375488 -0.5079825 -0.74592984 190 190 190
-0.20656839 -0.73204505 -0.2531482 64 64 64
-0.19341783 -0.71000457 -0.38821045 98 98 98
-0.113021486 -0.6279502 -0.5560186 141 141 141
-0.19421972 -0.7195487 -0.40498015 103 103 103
0.15825722 -0.73923534 -0.18149352 46 46 46
-0.16225693 -0.7290272 -0.3052803 77 77 77
0.036491826 -0.7485924 -0.17470568 44 44 44
0.08793345 -0.72180724 -0.4609374 117 117 117
-0.17811039 -0.74499077 -0.14912972 38 38 38
0.1575006 -0.5419717 -0.66631186 169 169 169
0.18903822 -0.59751415 -0.66375303 169 169 169
-0.20791596 -0.73789513 -0.19808272 50 50 50
0.04168044 -0.73895013 -0.20485246 52 52 52
-0.23335911 -0.7406963 -0.13566115 34 34 34
0.11722532 -0.73321724 -0.24986225 63 63 63
0.22135395 -0.6485181 -0.524989 133 133 133
0.015801802 -0.7350683 -0.47039434 119 119 119
0.22072104 -0.6783483 -0.5244535 133 133 133
-0.05458395 -0.754393 -0.04455301 11 11 11
-0.15146817 -0.7369468 -0.322126 82 82 82
0.014225259 -0.7385193 -0.17159185 43 43 43
0.31699204 -0.7247554 -0.42380443 108 108 108
0.13528231 -0.7402128 -0.2226899 56 56 56
0.18029681 -0.6507094 -0.47418174 120 120 120
-0.09229276 -0.7475617 -0.07599735 19 19 19
-0.1415057 -0.7313465 -0.26765049 68 68 68
0.18010661 -0.49682283 -0.61554337 156 156 156
0.0055144727 -0.7453737 -0.18125409 46 46 46
0.3725924 -0.7033504 -0.70203435 179 179 179
-0.09179514 -0.75347686 -0.052202493 13 13 13
0.37318832 -0.7135694 -0.5673504 144 144 144
0.013762131 -0.7421315 -0.18872407 48 48 48
-0.18953091 -0.69267994 -0.4089397 104 104 104
-0.19376038 -0.74343276 -0.16592544 42 42 42
-0.18896545 -0.73949814 -0.13556579 34 34 34
-0.1960035 -0.7479312 -0.15891495 40 40 40
-0.13215941 -0.73069793 -0.24155235 61 61 61
-0.2591825 -0.73466414 -0.29236388 74 74 74
-0.1373727 -0.73199517 -0.2614057 66 66 66
-0.22336318 -0.7383565 -0.31098315 79 79 79
-0.1979818 -0.73848027 -0.1587184 40 40 40
0.2432997 -0.5088876 -0.62690127 159 159 159
0.093277544 -0.6991945 -0.5287944 134 134 134
0.2631282 -0.47109163 -0.6106446 155 155 155
0.15995365 -0.42263424 -0.6300916 160 160 160
0.15834352 -0.40615618 -0.6332373 161 161 161
0.18779486 -0.5986114 -0.63591325 162 162 162
0.15321091 -0.66945624 -0.72156405 183 183 183
0.048086286 -0.7283572 -0.29191178 74 74 74
-0.030488983 -0.73182 -0.2931705 74 74 74
0.09413335 -0.71422327 -0.48568147 123 123 123
0.07151547 -0.7212954 -0.37530243 95 95 95
0.16136312 -0.43591762 -0.63358974 161 161 161
0.14340946 -0.4264463 -0.6370213 162 162 162
0.21442229 -0.40425086 -0.6151379 156 156 156
0.10637146 -0.47228634 -0.65252167 166 166 166
0.13921463 -0.4817586 -0.6491438 165 165 165
0.08002424 -0.7216302 -0.34176952 87 87 87
-0.064924076 -0.72978526 -0.34783274 88 88 88
0.07106733 -0.7216571 -0.3759035 95 95 95
0.13554558 -0.39062095 -0.6375908 162 162 162
-0.004554674 -0.7303101 -0.272022 69 69 69
-0.09491484 -0.7298317 -0.39039552 99 99 99
0.14674574 -0.60033745 -0.67142296 171 171 171
0.113024294 -0.4559425 -0.6512621 166 166 166
0.21567652 -0.5776373 -0.65162987 166 166 166
0.12917557 -0.488893 -0.66136986 168 168 168
0.16132525 -0.45711058 -0.6402044 163 163 163
0.12366292 -0.40981328 -0.6443401 164 164 164
0.08873224 -0.712909 -0.49667096 126 126 126
0.3408819 -0.6914289 -0.6360366 162 162 162
0.011871502 -0.73538697 -0.19625707 50 50 50
0.14985794 -0.38118315 -0.63211304 161 161 161
-0.02719684 -0.6061493 -0.5728021 146 146 146
0.2668013 -0.42419648 -0.6070473 154 154 154
0.14646628 -0.6014072 -0.45686245 116 116 116
0.10218197 -0.7226579 -0.26337552 67 67 67
0.11919299 -0.70803976 -0.6507724 165 165 165
0.10503438 -0.59309673 -0.48420113 123 123 123
0.15233114 -0.6359416 -0.72995716 186 186 186
0.14282188 -0.59625936 -0.45550424 116 116 116
-0.08944735 -0.7235159 -0.40418923 103 103 103
0.0072726905 -0.73867625 -0.19664048 50 50 50
0.050078392 -0.7330373 -0.23627321 60 60 60
0.11953929 -0.392636 -0.64247286 163 163 163
0.102143615 -0.59291637 -0.48454654 123 123 123
0.43724677 -0.67552865 -0.90282273 230 230 230
0.008315831 -0.7204119 -0.44686943 113 113 113
0.10953426 -0.71625865 -0.46277577 118 118 118
-0.017698213 -0.73258406 -0.29916137 76 76 76
0.13582486 -0.4079332 -0.63180906 161 161 161
0.041397244 -0.72706854 -0.32817793 83 83 83
0.08232373 -0.7217852 -0.3534541 90 90 90
1.6598347 -0.36051613 -2.5054235 638 638 638
0.22159791 -0.49850535 -0.6337453 161 161 161
0.12354791 -0.3629931 -0.6325631 161 161 161
0.15806717 -0.50748044 -0.667235 170 170 170
0.22045922 -0.36768138 -0.59795576 152 152 152
0.13269323 -0.36650604 -0.6315273 161 161 161
0.08090097 -0.7197752 -0.33371586 85 85 85
0.121463925 -0.47601634 -0.6309509 160 160 160
0.25272077 -0.37692523 -0.60213 153 153 153
0.28331187 -0.42968544 -0.61915225 157 157 157
0.22048932 -0.38509715 -0.6175369 157 157 157
0.09858599 -0.32129776 -0.63938993 163 163 163
0.024995148 -0.7374741 -0.16459496 41 41 41
0.040371537 -0.71507907 -0.4538988 115 115 115
0.060830593 -0.7150984 -0.49504757 126 126 126
0.061775804 -0.7119498 -0.48296863 123 123 123
0.2028555 -0.32197165 -0.60001504 153 153 153
0.24622631 -0.5099684 -0.62981844 160 160 160
0.15890601 -0.5246968 -0.6375172 162 162 162
0.15766615 -0.5537965 -0.6917338 176 176 176
0.14689353 -0.47141814 -0.63712347 162 162 162
0.10943338 -0.6256237 -0.46491182 118 118 118
0.09308374 -0.71227866 -0.4518059 115 115 115
0.14657456 -0.36114797 -0.63865125 162 162 162
0.09042248 -0.71658456 -0.47258896 120 120 120
0.18004239 -0.58238614 -0.6203891 158 158 158
0.08880696 -0.7238194 -0.3060329 78 78 78
0.012389153 -0.71389544 -0.50085163 127 127 127
-0.05119635 -0.72873336 -0.35281235 89 89 89
0.08875787 -0.7299206 -0.30260152 77 77 77
0.1181401 -0.49290627 -0.69444335 177 177 177
0.04396707 -0.7178052 -0.29200464 74 74 74
0.11432713 -0.6200384 -0.45519304 116 116 116
0.21780238 -0.5856045 -0.63307536 161 161 161
0.15192676 -0.63340616 -0.6594188 168 168 168
0.12293324 -0.67900217 -0.65986884 168 168 168
0.13955924 -0.46317002 -0.65441465 166 166 166
0.20547089 -0.37197205 -0.61326957 156 156 156
0.15910038 -0.37765145 -0.62920094 160 160 160
0.35472807 -0.69452816 -0.5954694 151 151 151
-0.04285565 -0.5825459 -0.62510496 159 159 159
-0.026886791 -0.61396736 -0.5949943 151 151 151
0.0066949576 -0.709632 -0.53729457 137 137 137
0.15061134 -0.4508971 -0.6388672 162 162 162
0.020484611 -0.7197466 -0.37090772 94 94 94
-0.06286307 -0.587944 -0.7025706 179 179 179
0.046165347 -0.7173231 -0.37519342 95 95 95
0.06431508 -0.7169682 -0.34605455 88 88 88
-0.008183494 -0.6046829 -0.66223943 168 168 168
-0.019826949 -0.54836696 -0.7283528 185 185 185
0.16659725 -0.52333796 -0.6989594 178 178 178
0.15574148 -0.387617 -0.63260657 161 161 161
0.1639925 -0.39038935 -0.6236541 159 159 159
0.18200114 -0.34572008 -0.61619806 157 157 157
0.16779879 -0.47295174 -0.652021 166 166 166
-0.11135468 -0.59018683 -0.5420154 138 138 138
-0.14086832 -0.6928235 -0.82901835 211 211 211
-0.13567832 -0.71348757 -0.73493856 187 187 187
-0.13394427 -0.70921636 -0.7270181 185 185 185
-0.09065248 -0.5924424 -0.60394263 154 154 154
-0.110511415 -0.5861188 -0.51728404 131 131 131
0.22629103 -0.43417108 -0.6146442 156 156 156
-0.10353687 -0.5915982 -0.574437 146 146 146
-0.13697256 -0.66457784 -0.86690676 221 221 221
0.13267753 -0.7069119 -0.6796698 173 173 173
0.35288396 -0.62003464 -1.6553454 422 422 422
-0.08991209 -0.59291077 -0.59341365 151 151 151
-0.13697682 -0.6831787 -0.8639294 220 220 220
0.13668749 -0.6660348 -0.63280964 161 161 161
0.02281019 -0.72039115 -0.283908 72 72 72
-0.06368849 -0.586227 -0.6151743 156 156 156
0.17552635 -0.58760095 -0.6312928 160 160 160
-0.035253495 -0.73056793 -0.13756238 35 35 35
-0.15678182 -0.73666656 -0.24788444 63 63 63
-0.09448953 -0.73134464 -0.26686275 68 68 68
-0.13158688 -0.7363655 -0.2574039 65 65 65
-0.1777489 -0.69290805 -0.39547342 100 100 100
-0.14603378 -0.7361298 -0.2522571 64 64 64
-0.16628337 -0.7355218 -0.2551908 65 65 65
-0.17476682 -0.73906875 -0.2517506 64 64 64
-0.18751614 -0.7402544 -0.23268591 59 59 59
-0.1777572 -0.7400978 -0.23662724 60 60 60
-0.19437668 -0.73843 -0.2281738 58 58 58
-0.15007043 -0.7368678 -0.25356466 64 64 64
-0.15571955 -0.7334645 -0.25832373 65 65 65
-0.20241052 -0.72939456 -0.3999142 101 101 101
-0.09972818 -0.7285609 -0.26888633 68 68 68
-0.19981118 -0.7329706 -0.38216335 97 97 97
-0.19178313 -0.7297524 -0.4267096 108 108 108
-0.15960234 -0.7383448 -0.25587612 65 65 65
-0.19849056 -0.7298671 -0.43660712 111 111 111
-0.13127515 -0.73438984 -0.26144612 66 66 66
-0.14619936 -0.7374315 -0.24494882 62 62 62
-0.10674363 -0.73059154 -0.2891429 73 73 73
-0.16990489 -0.73631537 -0.22134079 56 56 56
-0.1908714 -0.73820627 -0.22016759 56 56 56
-0.15971425 -0.73804474 -0.22585227 57 57 57
-0.20576063 -0.73534787 -0.24631085 62 62 62
-0.20174022 -0.73437846 -0.29981768 76 76 76
-0.11235254 -0.73528016 -0.2509868 64 64 64
-0.15526134 -0.7326454 -0.26519442 67 67 67
-0.103591725 -0.7273992 -0.33052713 84 84 84
-0.19410262 -0.7305436 -0.3630281 92 92 92
-0.13500519 -0.7349391 -0.26704037 68 68 68
-0.15608047 -0.7344513 -0.27300566 69 69 69
