ply
format ascii 1.0
comment author: Greg Turk
comment object: another cube
element vertex 1020
property float x
property float y
property float z
property uchar red
property uchar green
property uchar blue
end_header
-0.3189261 -1.2731102 -1.3789684 351 351 351
0.14505896 -0.72506595 -0.5123609 130 130 130
0.081461616 -0.7943846 -0.70636445 180 180 180
-0.56869113 -1.2669454 -1.2228357 311 311 311
-0.5047458 -1.132446 -1.2937148 329 329 329
-0.47584456 -1.2744833 -0.569642 145 145 145
0.035365187 -0.82917845 -0.37806153 96 96 96
0.15651461 -0.72430533 -0.5146287 131 131 131
0.17784101 -0.8062482 -0.54632 139 139 139
0.116415575 -0.7246375 -0.5451234 139 139 139
0.15660907 -0.7295719 -0.5253655 133 133 133
-0.14236069 -0.8234321 -0.56269324 143 143 143
0.09770042 -0.7149555 -0.74087334 188 188 188
-0.20226187 -1.1391691 -1.3279972 338 338 338
-0.16005978 -1.0314075 -1.3248458 337 337 337
0.10664971 -0.7665851 -0.5097697 129 129 129
-0.6095018 -1.2372826 -1.3916314 354 354 354
-0.58009285 -1.1753346 -1.3414661 342 342 342
-0.5376571 -1.1246322 -1.2983261 331 331 331
-0.5492888 -1.2702075 -0.6514783 166 166 166
-0.18729305 -0.8219868 -0.48642257 124 124 124
0.26582658 -0.60561496 -0.6899245 175 175 175
-0.18214613 -0.82137644 -0.4605593 117 117 117
0.14483415 -0.8482423 -0.49280387 125 125 125
0.14452381 -0.7223173 -0.5087704 129 129 129
0.28436494 -0.7573104 -0.616321 157 157 157
-0.3793499 -1.2501888 -1.1774023 300 300 300
-0.18894935 -0.8265656 -0.44801432 114 114 114
-0.52517265 -1.2672381 -0.6555239 167 167 167
-0.44090134 -1.2659222 -0.61196154 156 156 156
-0.055670813 -0.8299551 -0.48191127 122 122 122
0.37523127 -0.82426333 -0.4796002 122 122 122
0.098478824 -0.7437482 -0.5183155 132 132 132
0.01058834 -0.8302872 -0.6848765 174 174 174
-0.62140983 -1.2210858 -1.37792 351 351 351
-0.4933973 -1.1234639 -1.2941312 330 330 330
-0.1273517 -0.834849 -0.47046176 119 119 119
0.13026324 -0.75821686 -0.50573087 128 128 128
0.0064844713 -0.78938186 -0.68493587 174 174 174
0.008350715 -0.76890755 -0.69285893 176 176 176
-0.42113984 -1.2502942 -1.2184596 310 310 310
-0.6452185 -1.216064 -1.3711697 349 349 349
0.02529651 -0.7486601 -0.7056711 179 179 179
-0.15499821 -0.82743895 -0.42553088 108 108 108
-0.4631247 -1.2707272 -0.6774627 172 172 172
0.16804892 -0.7398527 -0.52761805 134 134 134
-0.034881786 -0.8193387 -0.7018673 178 178 178
0.11198081 -0.68210614 -0.7231583 184 184 184
0.11988366 -0.7557491 -0.5046675 128 128 128
0.047731988 -0.79608274 -0.7054091 179 179 179
0.0024419874 -0.7705666 -0.6958001 177 177 177
0.13141055 -0.69135857 -0.7274188 185 185 185
-0.5161769 -1.1179699 -1.2584916 320 320 320
-0.41506654 -1.2631702 -0.55133164 140 140 140
-0.551321 -1.2628863 -0.65685976 167 167 167
-0.6288509 -1.2655494 -1.0345744 263 263 263
-0.49337065 -1.263934 -1.1963965 305 305 305
0.07671218 -0.75971866 -0.5157816 131 131 131
0.1613654 -0.7220955 -0.5216177 133 133 133
0.16905317 -0.7306856 -0.5358899 136 136 136
0.080857635 -0.7208531 -0.5365892 136 136 136
0.13316703 -0.71430606 -0.71773326 183 183 183
-0.15318504 -0.8201921 -0.55880845 142 142 142
0.10743396 -0.72427756 -0.5510075 140 140 140
0.15893973 -0.8410741 -0.47632298 121 121 121
-0.002096504 -0.7870105 -0.68739045 175 175 175
0.040948324 -0.80124617 -0.70032096 178 178 178
0.09275943 -0.7252794 -0.57152665 145 145 145
0.10942044 -0.7220158 -0.5279154 134 134 134
0.14714292 -0.8442757 -0.48536098 123 123 123
0.10572377 -0.72554207 -0.56221724 143 143 143
-0.046551615 -0.8097595 -0.7283525 185 185 185
-0.33082396 -1.2623975 -1.2243929 312 312 312
0.07909563 -0.72361135 -0.54114544 137 137 137
0.07074785 -0.8357843 -0.52009946 132 132 132
0.2695377 -0.8340237 -0.537812 137 137 137
0.12651908 -0.7230779 -0.52139825 132 132 132
0.13236077 -0.7246588 -0.5493064 140 140 140
0.17203869 -0.72722805 -0.53466845 136 136 136
0.030406505 -0.82716894 -0.69866097 178 178 178
0.13917786 -0.7726168 -0.5072229 129 129 129
-0.40662667 -1.2615018 -1.0454984 266 266 266
0.05736365 -0.7821338 -0.71955687 183 183 183
0.037921645 -0.8231983 -0.6989051 178 178 178
-0.51777375 -1.2617233 -0.98971725 252 252 252
-0.52036786 -1.2588423 -1.0071189 256 256 256
0.12451052 -0.7511723 -0.71697515 182 182 182
-0.37124345 -1.2715183 -0.56867456 145 145 145
0.09922588 -0.72477746 -0.5489228 139 139 139
0.115028195 -0.72758096 -0.5597763 142 142 142
0.060429797 -0.70285743 -0.73958045 188 188 188
0.017064206 -0.82561076 -0.713064 181 181 181
0.13337933 -0.6479578 -0.75192285 191 191 191
0.14397945 -0.72383505 -0.52599204 134 134 134
0.13282983 -0.78837657 -0.6978403 177 177 177
0.081468046 -0.8354441 -0.52621925 134 134 134
0.07425776 -0.83204186 -0.5202474 132 132 132
-0.5265831 -1.2647308 -1.3185194 336 336 336
0.13429926 -0.72651935 -0.5401677 137 137 137
-0.1852167 -1.1359494 -1.3066787 333 333 333
0.123205334 -0.6910473 -0.730448 186 186 186
0.12028722 -0.72657907 -0.532374 135 135 135
0.24530524 -0.794853 -0.63848966 162 162 162
0.037173994 -0.7743397 -0.71353304 181 181 181
0.10639538 -0.793918 -0.69976395 178 178 178
0.07348658 -0.7668976 -0.5271074 134 134 134
0.08170683 -0.7243915 -0.5291042 134 134 134
0.08922061 -0.7238189 -0.56349146 143 143 143
0.13951504 -0.7249342 -0.523799 133 133 133
0.09005584 -0.75062335 -0.5209821 132 132 132
0.17344575 -0.84901977 -0.5201916 132 132 132
0.09129181 -0.7230458 -0.53787214 137 137 137
0.14067942 -0.72463393 -0.5445061 138 138 138
0.21536863 -0.8412478 -0.5953036 151 151 151
0.11364041 -0.7173315 -0.7233382 184 184 184
0.14048415 -0.75417256 -0.49309972 125 125 125
0.3546046 -0.8293965 -0.48027927 122 122 122
0.09466927 -0.8379326 -0.512809 130 130 130
-0.5313958 -1.2479407 -1.3803103 351 351 351
-0.31816164 -1.2708923 -1.3762074 350 350 350
0.14518881 -0.72523236 -0.5125163 130 130 130
0.08146873 -0.7947717 -0.7068615 180 180 180
-0.5677991 -1.2649632 -1.2218099 311 311 311
-0.50419235 -1.1320397 -1.2939886 329 329 329
-0.47380468 -1.2736495 -0.57037854 145 145 145
0.035227835 -0.82971025 -0.37843952 96 96 96
0.15640701 -0.7247633 -0.51500523 131 131 131
0.17774071 -0.8069413 -0.5469005 139 139 139
0.11629923 -0.7250329 -0.5454485 139 139 139
-0.14240494 -0.82360566 -0.56284565 143 143 143
-0.20210594 -1.1383197 -1.3267534 338 338 338
-0.15993813 -1.0306959 -1.323587 337 337 337
0.10632715 -0.7662051 -0.5095642 129 129 129
-0.60825086 -1.234187 -1.3892936 354 354 354
-0.57999 -1.1736051 -1.3402909 341 341 341
-0.5370765 -1.1224602 -1.2959071 330 330 330
-0.5493232 -1.2701561 -0.6516206 166 166 166
-0.18729037 -0.8221191 -0.48658755 124 124 124
0.26572135 -0.6059016 -0.6901056 175 175 175
-0.18252498 -0.82217395 -0.46115008 117 117 117
0.14470138 -0.8485242 -0.49304813 125 125 125
0.14441676 -0.7228149 -0.5091828 129 129 129
0.28424734 -0.7577391 -0.6166864 157 157 157
-0.37894306 -1.249156 -1.1763092 299 299 299
-0.18924534 -0.826908 -0.44794473 114 114 114
-0.5248264 -1.2641575 -0.6539445 166 166 166
-0.4408029 -1.2642401 -0.61117464 155 155 155
-0.055619106 -0.8309195 -0.48227268 122 122 122
0.3740071 -0.82344866 -0.47903657 122 122 122
0.0986239 -0.7435901 -0.51839596 132 132 132
0.010151371 -0.8293401 -0.6842129 174 174 174
-0.6214582 -1.2211928 -1.3784826 351 351 351
-0.49375924 -1.1251885 -1.2964652 330 330 330
0.1301206 -0.75733197 -0.5054206 128 128 128
0.008598223 -0.76924825 -0.69334805 176 176 176
-0.42094043 -1.2494183 -1.2176993 310 310 310
-0.6459919 -1.2172267 -1.3729335 350 350 350
-0.15518424 -0.8279389 -0.42592442 108 108 108
-0.46093872 -1.2669388 -0.67543936 172 172 172
0.36450684 -0.8269166 -0.4786914 122 122 122
0.16794947 -0.74001473 -0.5277439 134 134 134
-0.03485094 -0.8191297 -0.70159876 178 178 178
0.11188657 -0.6823802 -0.7233815 184 184 184
0.11977273 -0.7558687 -0.50475085 128 128 128
0.047672488 -0.7958926 -0.70508087 179 179 179
0.002339393 -0.7707693 -0.6959306 177 177 177
0.13127834 -0.69177854 -0.7278239 185 185 185
-0.51607656 -1.1177344 -1.2581712 320 320 320
-0.55055857 -1.2596366 -0.6551553 167 167 167
-0.62803364 -1.2638985 -1.0335045 263 263 263
0.11415523 -0.76314074 -0.716861 182 182 182
-0.48778322 -1.2526406 -1.1882465 303 303 303
0.077364355 -0.7602794 -0.51582557 131 131 131
0.16138926 -0.722306 -0.5217487 133 133 133
0.16912785 -0.73091584 -0.5360949 136 136 136
0.08078814 -0.7210848 -0.5367837 136 136 136
0.13274395 -0.7151215 -0.7177361 183 183 183
-0.15326457 -0.82036114 -0.5590244 142 142 142
0.107406415 -0.7245202 -0.5511911 140 140 140
0.15946366 -0.8417088 -0.47657567 121 121 121
-0.002019599 -0.787599 -0.68742573 175 175 175
0.040843733 -0.801479 -0.70052445 178 178 178
0.0930185 -0.7253896 -0.57177055 145 145 145
0.109389976 -0.7223532 -0.5281935 134 134 134
0.14702004 -0.84428465 -0.4853755 123 123 123
0.10585192 -0.7255321 -0.5624562 143 143 143
-0.04702063 -0.8103082 -0.72846985 185 185 185
-0.3306219 -1.2616769 -1.2244911 312 312 312
0.079069495 -0.7238376 -0.541325 138 138 138
0.07068604 -0.83547044 -0.5203162 132 132 132
0.26930112 -0.83369493 -0.5374827 137 137 137
0.12645136 -0.7232885 -0.52155447 132 132 132
0.13238104 -0.7247118 -0.54948485 140 140 140
0.17201555 -0.7275455 -0.5349008 136 136 136
0.030384004 -0.8270836 -0.69850385 178 178 178
0.13912326 -0.7724818 -0.5070806 129 129 129
-0.4061743 -1.2602413 -1.0443976 266 266 266
0.05724074 -0.78278613 -0.72026634 183 183 183
0.037819527 -0.8233644 -0.6990335 178 178 178
-0.51872164 -1.260652 -0.9891231 252 252 252
-0.5204312 -1.2606617 -1.007633 256 256 256
0.124464236 -0.75147444 -0.71721387 182 182 182
-0.37113112 -1.2704386 -0.56884456 145 145 145
0.09941428 -0.7248721 -0.5491321 140 140 140
0.114921324 -0.72736263 -0.5598028 142 142 142
0.060045995 -0.70266545 -0.7394899 188 188 188
0.016665906 -0.8217784 -0.7122116 181 181 181
0.13337994 -0.64819634 -0.75205195 191 191 191
0.13256213 -0.7889345 -0.6979474 177 177 177
0.08144854 -0.83503234 -0.5259041 134 134 134
0.07474169 -0.8328167 -0.5209018 132 132 132
-0.5264656 -1.2641655 -1.3179516 336 336 336
0.13436502 -0.7269059 -0.54058766 137 137 137
-0.18534823 -1.1341823 -1.3055493 332 332 332
0.12273358 -0.69055825 -0.72984385 186 186 186
0.12034974 -0.7267138 -0.53252614 135 135 135
0.24505314 -0.79442406 -0.63789964 162 162 162
0.037117228 -0.7745695 -0.713722 181 181 181
0.106226124 -0.79394186 -0.6998147 178 178 178
0.07342763 -0.7672303 -0.5273862 134 134 134
0.081630915 -0.72505546 -0.5297149 135 135 135
0.08919497 -0.7240341 -0.56365263 143 143 143
0.13969082 -0.72509897 -0.524048 133 133 133
0.09021858 -0.7507538 -0.52121687 132 132 132
0.17332289 -0.8492043 -0.520316 132 132 132
0.09126182 -0.72332 -0.5380951 137 137 137
0.14065944 -0.725225 -0.5450314 138 138 138
0.21525064 -0.84148705 -0.59544945 151 151 151
0.1135923 -0.718021 -0.72415113 184 184 184
0.14108577 -0.75424194 -0.49352792 125 125 125
0.35436946 -0.8293891 -0.4802168 122 122 122
0.09441971 -0.8369905 -0.51274604 130 130 130
-0.5311096 -1.2474917 -1.3804426 352 352 352
0.14516397 -0.7255373 -0.5127466 130 130 130
0.081424154 -0.79480064 -0.7067888 180 180 180
-0.56778353 -1.2645609 -1.2215188 311 311 311
-0.5037783 -1.1312388 -1.2929702 329 329 329
-0.47265387 -1.2713472 -0.5694717 145 145 145
0.03579575 -0.8300533 -0.3788256 96 96 96
0.15649751 -0.7250851 -0.5152544 131 131 131
0.1774503 -0.80818844 -0.5473239 139 139 139
0.11603497 -0.7253387 -0.54555273 139 139 139
0.15637977 -0.73074377 -0.5264672 134 134 134
-0.14145468 -0.82153606 -0.5625564 143 143 143
-0.20365025 -1.1331058 -1.3210175 336 336 336
-0.16003583 -1.0282269 -1.3206301 336 336 336
0.10627632 -0.7665485 -0.50983775 130 130 130
-0.6089877 -1.234788 -1.3902836 354 354 354
-0.5800381 -1.1734072 -1.3401575 341 341 341
-0.5370643 -1.1222247 -1.2956917 330 330 330
-0.54949325 -1.2707781 -0.6521411 166 166 166
-0.18722601 -0.82232857 -0.4869346 124 124 124
0.14451313 -0.8475225 -0.49295264 125 125 125
0.14481239 -0.723215 -0.50969714 129 129 129
0.28377184 -0.75749344 -0.616472 157 157 157
-0.37867618 -1.2469703 -1.1745605 299 299 299
-0.18886925 -0.8262942 -0.447668 114 114 114
-0.52417344 -1.2627897 -0.65337455 166 166 166
-0.44010192 -1.2626175 -0.6105137 155 155 155
-0.055502683 -0.8305503 -0.48208115 122 122 122
0.3740935 -0.8241296 -0.47945216 122 122 122
0.09858221 -0.74391687 -0.5186627 132 132 132
0.010003865 -0.8298521 -0.68472135 174 174 174
-0.6220909 -1.2216501 -1.3792878 351 351 351
-0.493154 -1.1241331 -1.2950634 330 330 330
0.13003829 -0.7576298 -0.50565463 128 128 128
0.008587852 -0.7691535 -0.69315994 176 176 176
-0.4211555 -1.249394 -1.2177687 310 310 310
-0.6460801 -1.2170464 -1.3728634 350 350 350
0.026894987 -0.7516373 -0.70868874 180 180 180
-0.15497823 -0.8275341 -0.4260871 108 108 108
-0.4603585 -1.2652851 -0.6752615 172 172 172
0.36448765 -0.8273033 -0.4788642 122 122 122
0.16822702 -0.7395986 -0.52791154 134 134 134
-0.034748808 -0.81844413 -0.7014973 178 178 178
0.11177739 -0.68295527 -0.72362745 184 184 184
0.119945645 -0.7560588 -0.504702 128 128 128
0.047852963 -0.79582524 -0.7051183 179 179 179
0.002661094 -0.7696885 -0.695518 177 177 177
0.13131364 -0.6919762 -0.72760797 185 185 185
-0.51655847 -1.1162665 -1.2566913 320 320 320
-0.013433695 -0.8276354 -0.38820165 98 98 98
-0.55060846 -1.2593203 -0.65518665 167 167 167
-0.62763774 -1.2630199 -1.0328785 263 263 263
0.11410483 -0.7633729 -0.71701276 182 182 182
0.07736647 -0.7602273 -0.5157151 131 131 131
0.16144982 -0.7223959 -0.52174354 133 133 133
0.1691473 -0.73093563 -0.5360178 136 136 136
0.08087869 -0.7213691 -0.53679615 136 136 136
0.13277508 -0.7150668 -0.7175897 182 182 182
-0.1526533 -0.8202599 -0.559227 142 142 142
0.10762034 -0.72460383 -0.5511591 140 140 140
0.15943567 -0.84169984 -0.47646978 121 121 121
-0.0019423962 -0.7875011 -0.68726957 175 175 175
0.041098595 -0.80189586 -0.7006214 178 178 178
0.09308199 -0.7254137 -0.5717216 145 145 145
0.109679095 -0.722616 -0.52811366 134 134 134
0.14685833 -0.8441436 -0.4853207 123 123 123
0.1059095 -0.7256291 -0.5624818 143 143 143
-0.047027588 -0.8102182 -0.72837526 185 185 185
-0.33085716 -1.2616671 -1.2246369 312 312 312
0.07920909 -0.7238463 -0.54130876 138 138 138
0.07068366 -0.83570445 -0.52045476 132 132 132
0.26887393 -0.8333262 -0.5372235 136 136 136
0.12653053 -0.7231997 -0.5216544 133 133 133
0.13239929 -0.7246828 -0.549374 140 140 140
0.17228371 -0.7275799 -0.5349194 136 136 136
0.031220123 -0.82618904 -0.69874424 178 178 178
0.13894226 -0.7717712 -0.5070354 129 129 129
0.057597175 -0.78299737 -0.7201548 183 183 183
0.037972853 -0.82293797 -0.6991599 178 178 178
-0.51880383 -1.2602905 -0.98897666 252 252 252
-0.52025455 -1.2599193 -1.0071236 256 256 256
0.12452146 -0.7516707 -0.717136 182 182 182
-0.3714546 -1.2707236 -0.569069 145 145 145
-0.051198453 -0.8091866 -0.7335102 187 187 187
0.114982694 -0.7273763 -0.5597353 142 142 142
0.060081013 -0.7026121 -0.7393867 188 188 188
0.016493574 -0.8227266 -0.713274 181 181 181
0.13326499 -0.6480589 -0.7518267 191 191 191
0.13256446 -0.78885764 -0.6977809 177 177 177
0.08148362 -0.83411765 -0.52592504 134 134 134
0.07471296 -0.832798 -0.52082044 132 132 132
-0.52595305 -1.262562 -1.31743 335 335 335
0.13438217 -0.7268076 -0.5404039 137 137 137
-0.1853216 -1.133922 -1.3052269 332 332 332
0.122773916 -0.69053465 -0.7297504 186 186 186
0.12040956 -0.7267374 -0.5324701 135 135 135
0.24434665 -0.7929342 -0.63707507 162 162 162
0.037050255 -0.77474684 -0.713587 181 181 181
0.10626796 -0.7939645 -0.6997551 178 178 178
0.07357773 -0.7674424 -0.52738595 134 134 134
0.08242355 -0.72579646 -0.529869 135 135 135
0.13975075 -0.7252574 -0.5241192 133 133 133
0.09026432 -0.7508498 -0.52124363 132 132 132
0.17345537 -0.84935355 -0.5203381 132 132 132
0.09132624 -0.7233604 -0.5380528 137 137 137
0.14083204 -0.7253691 -0.54496944 138 138 138
0.2153163 -0.8417491 -0.5955537 151 151 151
0.11326443 -0.7188896 -0.7241232 184 184 184
0.14113736 -0.75459015 -0.49375308 125 125 125
0.35387054 -0.82867205 -0.47981128 122 122 122
0.094484136 -0.8364141 -0.5122513 130 130 130
-0.5313154 -1.2475194 -1.3807003 352 352 352
0.14500375 -0.72572523 -0.512604 130 130 130
0.081526384 -0.7944329 -0.70664936 180 180 180
-0.56712914 -1.2634655 -1.2211461 311 311 311
-0.5034192 -1.1297126 -1.2922395 329 329 329
0.15651286 -0.7250266 -0.5151039 131 131 131
0.15639678 -0.73075044 -0.52638125 134 134 134
-0.16008675 -1.0280802 -1.3205192 336 336 336
0.10660829 -0.76654935 -0.5098278 130 130 130
-0.60889214 -1.2348287 -1.390451 354 354 354
-0.5781308 -1.1716444 -1.3389767 341 341 341
-0.53569293 -1.1204267 -1.2944233 330 330 330
-0.18795094 -0.82354295 -0.48787266 124 124 124
0.14447854 -0.8472482 -0.49265987 125 125 125
0.28382573 -0.7576349 -0.6164854 157 157 157
-0.37859076 -1.2463378 -1.1740144 299 299 299
-0.18821079 -0.82554436 -0.4476281 114 114 114
-0.5225889 -1.2613065 -0.6534502 166 166 166
-0.43915224 -1.2613876 -0.61051035 155 155 155
-0.05547014 -0.8300898 -0.4820221 122 122 122
0.37419385 -0.8242849 -0.4793924 122 122 122
0.098798096 -0.7440173 -0.51860523 132 132 132
-0.62234086 -1.2217684 -1.3794365 351 351 351
-0.49265832 -1.1229169 -1.2942314 330 330 330
0.13024724 -0.7579525 -0.5059347 129 129 129
0.008966476 -0.76861656 -0.6929561 176 176 176
-0.42011487 -1.2482011 -1.2170933 310 310 310
-0.64531255 -1.2156452 -1.3719821 349 349 349
-0.15495396 -0.8275137 -0.42610165 108 108 108
-0.46072918 -1.2655742 -0.67555237 172 172 172
0.36433136 -0.8270298 -0.47853696 122 122 122
0.16828987 -0.73979676 -0.528009 134 134 134
-0.03478004 -0.81866014 -0.7017243 178 178 178
0.11186998 -0.68281126 -0.7232741 184 184 184
0.119956434 -0.75580907 -0.50439787 128 128 128
0.04784739 -0.7957866 -0.70504004 179 179 179
0.0025902241 -0.769895 -0.6957738 177 177 177
0.13135448 -0.69187945 -0.7273925 185 185 185
-0.5164296 -1.1157441 -1.2562503 320 320 320
-0.013270289 -0.8283707 -0.38826603 99 99 99
-0.55036193 -1.2597187 -0.65539026 167 167 167
0.15523152 -0.74319386 -0.5027117 128 128 128
0.1005895 -0.74954975 -0.51384866 131 131 131
-0.62817764 -1.2615899 -1.0321443 263 263 263
0.270662 -0.7643521 -0.6236213 159 159 159
0.11420995 -0.76345205 -0.7169151 182 182 182
-0.17861986 -0.82912695 -0.43950474 112 112 112
-0.18020791 -0.8305167 -0.5214468 132 132 132
-0.61782897 -1.2357409 -1.1369877 289 289 289
0.07751743 -0.7605383 -0.51531214 131 131 131
0.16164163 -0.7226335 -0.5216307 133 133 133
0.16947916 -0.73137736 -0.5357778 136 136 136
0.08096355 -0.7213727 -0.5367765 136 136 136
0.1333639 -0.7144757 -0.7177609 183 183 183
-0.15269017 -0.8202808 -0.5592405 142 142 142
0.10764761 -0.7245548 -0.55110145 140 140 140
0.1600647 -0.8418106 -0.47656095 121 121 121
-0.0016203523 -0.7872494 -0.6874902 175 175 175
0.041153938 -0.80181634 -0.70058036 178 178 178
0.10970852 -0.72262585 -0.52810955 134 134 134
0.1469395 -0.84402454 -0.48523915 123 123 123
0.106290706 -0.725894 -0.5625029 143 143 143
-0.3309929 -1.2620304 -1.2251077 312 312 312
0.079235576 -0.72382283 -0.5412732 138 138 138
0.07110045 -0.83621323 -0.5204866 132 132 132
0.2688162 -0.8330058 -0.5369786 136 136 136
0.12661818 -0.7232019 -0.52163255 133 133 133
0.13266721 -0.724894 -0.54938114 140 140 140
0.17232978 -0.72773397 -0.5350718 136 136 136
0.031187244 -0.82616544 -0.69878733 178 178 178
0.13897322 -0.7718667 -0.5071089 129 129 129
0.05765076 -0.78245485 -0.71953225 183 183 183
0.038023315 -0.82287526 -0.69914615 178 178 178
-0.5177645 -1.2602004 -0.98902744 252 252 252
0.124512665 -0.75138986 -0.7168293 182 182 182
-0.3713063 -1.2713044 -0.56922644 145 145 145
0.10157734 -0.7259737 -0.54986477 140 140 140
-0.05123526 -0.8091166 -0.7335051 187 187 187
0.11506781 -0.727562 -0.55981934 142 142 142
0.06061989 -0.70241207 -0.73933893 188 188 188
0.016835965 -0.823115 -0.71320176 181 181 181
0.13326009 -0.6477537 -0.7513653 191 191 191
0.13296837 -0.78862274 -0.6978645 177 177 177
0.07480421 -0.83315134 -0.52100307 132 132 132
-0.5262586 -1.2624063 -1.317626 335 335 335
0.1343163 -0.7267789 -0.54024905 137 137 137
-0.18538046 -1.1332908 -1.3051778 332 332 332
0.12325284 -0.6899868 -0.7298229 186 186 186
0.12075152 -0.72706306 -0.5326161 135 135 135
0.24438769 -0.79282844 -0.63700074 162 162 162
0.03705068 -0.7745762 -0.7134397 181 181 181
0.10634544 -0.7939024 -0.69986904 178 178 178
0.073587604 -0.7675244 -0.52745336 134 134 134
0.082449615 -0.7257992 -0.52985704 135 135 135
0.14008527 -0.72567177 -0.524235 133 133 133
0.09053591 -0.7512307 -0.521306 132 132 132
0.17353836 -0.8494611 -0.52044046 132 132 132
0.14085902 -0.72521114 -0.5447966 138 138 138
0.21537548 -0.84171164 -0.59555817 151 151 151
0.113259114 -0.7187049 -0.72393006 184 184 184
0.1405831 -0.7554127 -0.49370512 125 125 125
0.35394084 -0.82866645 -0.47982576 122 122 122
0.093834355 -0.83549476 -0.5122273 130 130 130
-0.53133506 -1.2472554 -1.3808811 352 352 352
0.14504053 -0.72575414 -0.51261526 130 130 130
0.081515916 -0.7942834 -0.70653856 180 180 180
-0.5673636 -1.2632536 -1.2212292 311 311 311
-0.5035409 -1.129342 -1.2921028 329 329 329
0.15663691 -0.72477585 -0.51509917 131 131 131
0.15655497 -0.73095596 -0.5265015 134 134 134
-0.15973821 -1.0274574 -1.3207326 336 336 336
0.10664338 -0.76643646 -0.50971377 129 129 129
-0.57817507 -1.1713518 -1.3389549 341 341 341
-0.5358362 -1.1202841 -1.2945883 330 330 330
0.14448339 -0.8469603 -0.49238083 125 125 125
0.2839986 -0.75787735 -0.6168166 157 157 157
-0.37714857 -1.245352 -1.1736323 299 299 299
-0.18777305 -0.824839 -0.4471021 114 114 114
-0.52383053 -1.262905 -0.6544576 166 166 166
-0.4395268 -1.2618085 -0.6108049 155 155 155
-0.05558473 -0.83044755 -0.4822634 122 122 122
0.374359 -0.8245915 -0.47963387 122 122 122
0.09883433 -0.74392194 -0.5184991 132 132 132
-0.6222286 -1.2210464 -1.3788695 351 351 351
-0.4918809 -1.1213597 -1.2923642 329 329 329
0.13033438 -0.7579806 -0.5059429 129 129 129
0.009008944 -0.7686147 -0.6929971 176 176 176
-0.420475 -1.2484869 -1.2177656 310 310 310
-0.64552826 -1.215535 -1.3722397 349 349 349
-0.1541864 -0.82846475 -0.42627853 108 108 108
0.36430597 -0.82754374 -0.4786569 122 122 122
0.16841798 -0.74023116 -0.5281287 134 134 134
-0.03451878 -0.8189839 -0.7019761 179 179 179
0.11213207 -0.6823052 -0.7233366 184 184 184
0.11990985 -0.75521517 -0.50398177 128 128 128
0.048078142 -0.7957097 -0.705108 179 179 179
0.0026804656 -0.770497 -0.6964854 177 177 177
0.13196057 -0.69161576 -0.7273765 185 185 185
-0.5157618 -1.1164237 -1.2566451 320 320 320
-0.013310298 -0.82867384 -0.38839337 99 99 99
-0.5501987 -1.2592616 -0.65518874 167 167 167
0.15525469 -0.7428824 -0.5024067 128 128 128
0.10061344 -0.74961436 -0.51389396 131 131 131
-0.62828475 -1.2613047 -1.032087 263 263 263
0.27084577 -0.76493156 -0.6243234 159 159 159
0.1142001 -0.763248 -0.7167211 182 182 182
-0.17854956 -0.82918787 -0.43950748 112 112 112
-0.17998555 -0.83027244 -0.52122813 132 132 132
-0.6183629 -1.2361494 -1.1377182 290 290 290
0.07754421 -0.7605752 -0.51538336 131 131 131
0.16165753 -0.72273034 -0.5216892 133 133 133
0.16952236 -0.7314586 -0.53585434 136 136 136
0.08158033 -0.7214109 -0.5370786 136 136 136
0.13342205 -0.71457076 -0.71787125 183 183 183
-0.15209572 -0.8206838 -0.5594156 142 142 142
0.10772294 -0.72466373 -0.551101 140 140 140
0.16006188 -0.84189945 -0.4766389 121 121 121
-0.0016488433 -0.78738827 -0.68767107 175 175 175
0.04134038 -0.80185914 -0.70069456 178 178 178
0.11028986 -0.7227965 -0.5282427 134 134 134
0.14643484 -0.8433671 -0.48511806 123 123 123
0.10630348 -0.7260079 -0.56260353 143 143 143
-0.33114272 -1.2620101 -1.225241 312 312 312
0.07959091 -0.7239692 -0.5413846 138 138 138
0.07109814 -0.83607644 -0.52038455 132 132 132
0.26877812 -0.83336043 -0.53718525 136 136 136
0.12651408 -0.72344816 -0.5215979 133 133 133
0.13271134 -0.7249676 -0.5494668 140 140 140
0.17241296 -0.72835714 -0.53499377 136 136 136
0.030918948 -0.8264727 -0.69865507 178 178 178
0.13907266 -0.7720462 -0.5070971 129 129 129
0.05699552 -0.7822353 -0.7193858 183 183 183
0.03792437 -0.8227235 -0.6991485 178 178 178
-0.51793575 -1.2600964 -0.9891651 252 252 252
0.124566264 -0.7512363 -0.71688485 182 182 182
-0.37157345 -1.2713745 -0.5693948 145 145 145
0.10158625 -0.7261179 -0.54999983 140 140 140
0.11508027 -0.7276876 -0.5599288 142 142 142
0.060666703 -0.70253694 -0.73954576 188 188 188
0.017075032 -0.8220659 -0.7119465 181 181 181
0.13333873 -0.6475414 -0.75149643 191 191 191
0.13299601 -0.78875715 -0.69801486 177 177 177
0.07479026 -0.8332959 -0.5211605 132 132 132
-0.52568513 -1.262883 -1.3180586 336 336 336
0.13436009 -0.72680056 -0.5402782 137 137 137
-0.18556379 -1.1335119 -1.3055637 332 332 332
0.12331811 -0.69012475 -0.73001385 186 186 186
0.12076051 -0.72726184 -0.5327982 135 135 135
0.24458373 -0.7927312 -0.6371402 162 162 162
0.037444606 -0.77470064 -0.71357244 181 181 181
0.10633011 -0.7941763 -0.7001654 178 178 178
0.07384643 -0.76789355 -0.5276193 134 134 134
0.08278064 -0.72590184 -0.5299564 135 135 135
0.14009978 -0.725816 -0.5243512 133 133 133
0.09055451 -0.7511631 -0.5212331 132 132 132
0.17364998 -0.84999156 -0.52065116 132 132 132
0.1409462 -0.7252306 -0.5448857 138 138 138
0.2156434 -0.8418675 -0.595782 151 151 151
0.11351319 -0.718992 -0.7240242 184 184 184
0.14058612 -0.75577265 -0.49400854 125 125 125
0.3541627 -0.8291151 -0.47986004 122 122 122
0.09371944 -0.8366251 -0.5131358 130 130 130
-0.5314074 -1.2470545 -1.3808473 352 352 352
0.14523612 -0.7259103 -0.5126891 130 130 130
0.08180153 -0.7944677 -0.70671445 180 180 180
-0.5668395 -1.2634937 -1.2214972 311 311 311
-0.5032385 -1.1291164 -1.2922491 329 329 329
0.15667985 -0.7248292 -0.51515406 131 131 131
0.15659542 -0.73098695 -0.5265323 134 134 134
-0.15986554 -1.0276983 -1.3212111 336 336 336
0.106652334 -0.766513 -0.5097344 129 129 129
-0.5777598 -1.1712549 -1.3392932 341 341 341
-0.5361805 -1.1204119 -1.2948389 330 330 330
0.14447297 -0.84616876 -0.49179882 125 125 125
0.28415018 -0.7583557 -0.6172939 157 157 157
-0.3775636 -1.2458023 -1.1743343 299 299 299
-0.18784325 -0.824099 -0.4472164 114 114 114
-0.52405065 -1.2652736 -0.65489554 166 166 166
-0.4400621 -1.2627355 -0.6110014 155 155 155
-0.05521643 -0.83157516 -0.48248842 123 123 123
0.37444416 -0.82503206 -0.47970054 122 122 122
0.099046186 -0.7439742 -0.518614 132 132 132
-0.62199455 -1.2204401 -1.3788879 351 351 351
-0.49116498 -1.1196036 -1.2918305 329 329 329
0.008961812 -0.76926357 -0.6931736 176 176 176
-0.42131126 -1.2505887 -1.2196475 311 311 311
-0.6465187 -1.2172354 -1.3735932 350 350 350
0.025899827 -0.75283766 -0.7082326 180 180 180
-0.15401651 -0.82808286 -0.4261182 108 108 108
0.36435953 -0.8278817 -0.47883028 122 122 122
0.16843271 -0.740404 -0.5282604 134 134 134
-0.03456475 -0.81911856 -0.7021621 179 179 179
0.11214025 -0.68284386 -0.7241451 184 184 184
0.11993999 -0.75525475 -0.5040388 128 128 128
0.048061363 -0.79596925 -0.70545834 179 179 179
0.00265871 -0.7707054 -0.6968063 177 177 177
0.13202576 -0.6918063 -0.727647 185 185 185
-0.51556194 -1.115957 -1.2562587 320 320 320
-0.013475016 -0.82938874 -0.38853943 99 99 99
-0.55019623 -1.2596581 -0.65540093 167 167 167
0.15540674 -0.74283755 -0.5023924 128 128 128
0.1005813 -0.74980783 -0.51394016 131 131 131
-0.6279037 -1.262109 -1.0325402 263 263 263
0.27177137 -0.7656077 -0.62504554 159 159 159
0.11473152 -0.7632164 -0.71701634 182 182 182
-0.1784449 -0.8282754 -0.43944156 112 112 112
-0.17970793 -0.8298714 -0.52110404 132 132 132
0.06764237 -0.8078216 -0.70566124 179 179 179
0.022174917 -0.7753265 -0.7019926 179 179 179
0.12180236 -0.7545526 -0.71517926 182 182 182
-0.6200184 -1.2394483 -1.140518 290 290 290
0.10616325 -0.70966697 -0.7232005 184 184 184
-0.48983252 -1.2517478 -1.1943982 304 304 304
0.07837551 -0.76098615 -0.5149664 131 131 131
0.16174795 -0.7229016 -0.5216427 133 133 133
0.16980608 -0.7316637 -0.5355838 136 136 136
0.081559554 -0.72145987 -0.5370726 136 136 136
0.13364038 -0.71505314 -0.71762127 182 182 182
-0.15206547 -0.8205029 -0.55920416 142 142 142
0.107709885 -0.72460264 -0.5509522 140 140 140
-0.0011469722 -0.78790283 -0.6876979 175 175 175
0.04132758 -0.8019085 -0.700654 178 178 178
0.11026925 -0.7228087 -0.5281769 134 134 134
0.1067162 -0.7260938 -0.5627958 143 143 143
-0.33067262 -1.2618642 -1.2253854 312 312 312
0.07956918 -0.72396374 -0.5413055 138 138 138
0.07106743 -0.8357725 -0.52052045 132 132 132
0.26892447 -0.83410275 -0.5376902 137 137 137
0.12649482 -0.7234564 -0.52154076 132 132 132
0.17239192 -0.72823465 -0.534768 136 136 136
0.03090991 -0.8263943 -0.6984602 178 178 178
0.1390517 -0.7715702 -0.50656945 129 129 129
0.05695259 -0.78239954 -0.7194965 183 183 183
0.037888907 -0.822868 -0.69922096 178 178 178
-0.5180514 -1.2599696 -0.98900986 252 252 252
0.12455897 -0.75127345 -0.71681744 182 182 182
-0.37236363 -1.2710662 -0.56925076 145 145 145
0.101711094 -0.72619545 -0.55006963 140 140 140
0.11510669 -0.7277836 -0.56005037 142 142 142
0.06102161 -0.70206666 -0.7400352 188 188 188
0.016722113 -0.8202816 -0.7115775 181 181 181
0.13334283 -0.6478759 -0.75201285 191 191 191
0.13340496 -0.78875446 -0.69833446 178 178 178
0.07540687 -0.83386445 -0.5214681 132 132 132
-0.52553177 -1.2626134 -1.3175608 335 335 335
-0.18676893 -1.1329728 -1.3043033 332 332 332
0.12391027 -0.69043136 -0.7304281 186 186 186
0.24445501 -0.7922324 -0.6364414 162 162 162
0.037473366 -0.77450144 -0.71320826 181 181 181
0.10677031 -0.7943201 -0.7004964 178 178 178
0.07378478 -0.7681017 -0.5277394 134 134 134
0.08274544 -0.7259848 -0.52997124 135 135 135
0.14059317 -0.7258217 -0.5246984 133 133 133
0.0904018 -0.7509507 -0.5211627 132 132 132
0.17359887 -0.8497715 -0.520391 132 132 132
0.14093092 -0.72526693 -0.5448373 138 138 138
0.21558842 -0.8417232 -0.5955338 151 151 151
0.11352786 -0.7187799 -0.7235859 184 184 184
0.14093581 -0.756003 -0.49432445 126 126 126
0.35399383 -0.8288264 -0.47952878 122 122 122
-0.5308563 -1.2459979 -1.3805852 352 352 352
0.14521818 -0.7256689 -0.51235664 130 130 130
-0.5665907 -1.2630765 -1.2208853 311 311 311
-0.50323296 -1.1290966 -1.292079 329 329 329
0.15660127 -0.72454107 -0.5149301 131 131 131
0.15626095 -0.7305202 -0.5260535 134 134 134
-0.15894736 -1.0278629 -1.3231449 337 337 337
0.106624454 -0.76650465 -0.5096408 129 129 129
-0.57767487 -1.1712513 -1.3391327 341 341 341
-0.53609705 -1.1204115 -1.2946846 330 330 330
-0.18744163 -0.82290685 -0.48666853 124 124 124
0.1438259 -0.8429179 -0.489936 124 124 124
0.28468615 -0.7590592 -0.6180586 157 157 157
-0.3791244 -1.2467225 -1.1742922 299 299 299
-0.52414393 -1.265162 -0.6547656 166 166 166
-0.4404155 -1.2630541 -0.61110175 155 155 155
-0.055178523 -0.8312918 -0.4822067 122 122 122
0.3744158 -0.8250159 -0.4795373 122 122 122
0.099036165 -0.74381924 -0.5183803 132 132 132
-0.6221193 -1.2205718 -1.3789333 351 351 351
-0.49120682 -1.1196489 -1.2917534 329 329 329
0.008948699 -0.7693285 -0.69316566 176 176 176
-0.42129618 -1.2506096 -1.2195255 310 310 310
-0.64628303 -1.2170535 -1.3731903 350 350 350
-0.15438233 -0.8271749 -0.42590767 108 108 108
0.36420792 -0.82790303 -0.4787624 122 122 122
0.16857795 -0.7405585 -0.52838004 134 134 134
-0.034295768 -0.81963634 -0.7024672 179 179 179
0.11303951 -0.68349576 -0.7250821 184 184 184
0.12008098 -0.75527453 -0.5039924 128 128 128
0.18019007 -0.7755053 -0.54531515 139 139 139
0.04803603 -0.7957319 -0.70561075 179 179 179
0.002836153 -0.7710774 -0.6972206 177 177 177
0.13295917 -0.6921481 -0.7288085 185 185 185
-0.51501065 -1.1146624 -1.2547743 319 319 319
-0.013635859 -0.8296993 -0.38864976 99 99 99
-0.5509645 -1.2604897 -0.6558482 167 167 167
0.15537713 -0.7424395 -0.5019194 127 127 127
0.100557595 -0.74977934 -0.5138313 131 131 131
-0.6273081 -1.2612259 -1.031595 263 263 263
0.2718165 -0.76581365 -0.6251469 159 159 159
0.11473421 -0.76304185 -0.7166587 182 182 182
-0.17843615 -0.8281797 -0.43938488 112 112 112
0.06766204 -0.8076534 -0.7053431 179 179 179
0.022173733 -0.7753478 -0.7019213 178 178 178
0.12179264 -0.75468546 -0.71523213 182 182 182
-0.62008727 -1.2395549 -1.1405654 290 290 290
0.10615905 -0.7097937 -0.72325927 184 184 184
-0.48977584 -1.2516992 -1.1942192 304 304 304
0.078260794 -0.7610923 -0.5149648 131 131 131
0.16165361 -0.72298145 -0.52156633 132 132 132
0.16970728 -0.7318125 -0.5355779 136 136 136
0.08175428 -0.7220149 -0.53672355 136 136 136
0.13357964 -0.7152122 -0.71761334 182 182 182
-0.1521149 -0.8202731 -0.55939233 142 142 142
0.10763122 -0.7247211 -0.5510401 140 140 140
-0.0012217611 -0.78792083 -0.68757635 175 175 175
0.041665763 -0.80209714 -0.7006366 178 178 178
0.11056925 -0.7230636 -0.5283186 134 134 134
0.10662471 -0.72619426 -0.56275976 143 143 143
-0.33086622 -1.2620363 -1.2255069 312 312 312
0.0798592 -0.72415507 -0.5415081 138 138 138
0.07092781 -0.8358833 -0.52049816 132 132 132
0.26912183 -0.8347955 -0.5377003 137 137 137
0.12661442 -0.7232436 -0.5216407 133 133 133
0.17216723 -0.72843164 -0.53469694 136 136 136
0.030868396 -0.8263055 -0.6986189 178 178 178
0.1385628 -0.77112687 -0.5065515 129 129 129
0.057495534 -0.781875 -0.72011906 183 183 183
0.037877925 -0.82328826 -0.6992837 178 178 178
-0.518306 -1.2600493 -0.989158 252 252 252
0.124784485 -0.7516159 -0.716982 182 182 182
-0.37311545 -1.2719109 -0.56968737 145 145 145
0.10162933 -0.7261806 -0.5499093 140 140 140
0.11499592 -0.7281278 -0.56028813 142 142 142
0.060968556 -0.70220315 -0.7400356 188 188 188
0.13428965 -0.64791715 -0.75292754 191 191 191
0.13331588 -0.7889073 -0.6983163 178 178 178
0.07526481 -0.8340006 -0.5214868 132 132 132
-0.5252218 -1.2632443 -1.3181584 336 336 336
-0.1868057 -1.1329195 -1.3039523 332 332 332
0.12385988 -0.6905911 -0.7304268 186 186 186
0.037561886 -0.7742569 -0.71342057 181 181 181
0.10668783 -0.79433614 -0.7003099 178 178 178
0.07402597 -0.76866233 -0.5278709 134 134 134
0.08329358 -0.7266234 -0.5302858 135 135 135
0.14049704 -0.72596395 -0.5246977 133 133 133
0.090296075 -0.75102836 -0.52111495 132 132 132
0.17388687 -0.8484104 -0.5204513 132 132 132
0.14099397 -0.725415 -0.54496163 138 138 138
0.21525232 -0.84101975 -0.5951808 151 151 151
0.113406606 -0.718521 -0.7236512 184 184 184
0.14082451 -0.75617874 -0.4943499 126 126 126
0.35376382 -0.8285163 -0.47915655 122 122 122
-0.5311649 -1.2462853 -1.3808832 352 352 352
0.14493471 -0.72572726 -0.51228136 130 130 130
-0.5670545 -1.2630619 -1.2207946 311 311 311
-0.5029398 -1.129409 -1.2921921 329 329 329
-0.1589959 -1.0280052 -1.323122 337 337 337
0.10663742 -0.76676583 -0.50968814 129 129 129
-0.5786729 -1.171371 -1.3394115 341 341 341
-0.53626704 -1.1199938 -1.2946162 330 330 330
-0.1871683 -0.8222351 -0.4861303 123 123 123
0.14367822 -0.8431932 -0.49003494 124 124 124
0.28462833 -0.7593589 -0.6181497 157 157 157
-0.37924513 -1.2467222 -1.1742488 299 299 299
-0.5262172 -1.266017 -0.65499383 167 167 167
-0.4422408 -1.2637997 -0.6110037 155 155 155
-0.0562848 -0.8309489 -0.4817859 122 122 122
0.37412995 -0.8250188 -0.47948915 122 122 122
0.09900987 -0.74382955 -0.51847565 132 132 132
-0.62180924 -1.2207154 -1.3793105 351 351 351
-0.4900758 -1.1196401 -1.2920113 329 329 329
0.009426191 -0.76867807 -0.6938025 176 176 176
-0.6442189 -1.2158546 -1.3719765 349 349 349
0.3640625 -0.82800525 -0.47862047 122 122 122
0.16847768 -0.7406116 -0.5282695 134 134 134
-0.034358114 -0.81959325 -0.702285 179 179 179
0.11299055 -0.6836009 -0.72500646 184 184 184
0.119961664 -0.7554673 -0.50405556 128 128 128
0.1800804 -0.77568257 -0.5453266 139 139 139
0.04793018 -0.79592925 -0.7056972 179 179 179
0.0027557462 -0.77117324 -0.6972069 177 177 177
0.13290854 -0.69230294 -0.728793 185 185 185
-0.51511884 -1.1147132 -1.2548599 319 319 319
-0.0140021 -0.8302487 -0.388529 99 99 99
-0.55310833 -1.2618607 -0.656273 167 167 167
0.15526049 -0.7423744 -0.5019121 127 127 127
0.10045467 -0.7499746 -0.513832 131 131 131
0.2722662 -0.7661979 -0.6257329 159 159 159
0.114700705 -0.76343334 -0.71668327 182 182 182
-0.17797911 -0.82748324 -0.43912208 111 111 111
0.06783171 -0.80733323 -0.7051885 179 179 179
0.022279099 -0.77483296 -0.7020937 179 179 179
0.12201264 -0.75480175 -0.71596557 182 182 182
-0.61990154 -1.2395785 -1.1402907 290 290 290
-0.49345013 -1.2539835 -1.1956079 304 304 304
0.0784111 -0.76120245 -0.51446676 131 131 131
0.1615192 -0.7228136 -0.52095133 132 132 132
0.08177266 -0.7217639 -0.5360827 136 136 136
0.13363577 -0.7153858 -0.71712774 182 182 182
-0.15192527 -0.8198872 -0.5586485 142 142 142
-0.0013612062 -0.78737867 -0.68719774 175 175 175
0.04169511 -0.8019062 -0.6999989 178 178 178
0.11060265 -0.7228905 -0.527821 134 134 134
0.10683739 -0.7259258 -0.5622756 143 143 143
-0.33255827 -1.2624881 -1.2256998 312 312 312
0.07989216 -0.723997 -0.54101855 137 137 137
0.07128906 -0.83558536 -0.52004 132 132 132
0.26911768 -0.8343775 -0.53699213 136 136 136
0.12663347 -0.7229736 -0.52099556 132 132 132
0.17220311 -0.72833353 -0.53428674 136 136 136
0.030893646 -0.8262642 -0.6982026 178 178 178
0.13860628 -0.7707407 -0.5058608 128 128 128
0.05757799 -0.7815312 -0.71930885 183 183 183
0.03792146 -0.8230511 -0.6985872 178 178 178
-0.5195615 -1.2613196 -0.9889929 252 252 252
0.12482016 -0.7515023 -0.71649593 182 182 182
-0.37302914 -1.2713854 -0.5688287 145 145 145
0.101479635 -0.72583646 -0.5493423 140 140 140
0.115945034 -0.72794235 -0.5601323 142 142 142
0.060660094 -0.7023531 -0.739554 188 188 188
0.016075477 -0.8166658 -0.7117563 181 181 181
0.13431855 -0.6477619 -0.7523569 191 191 191
0.13352399 -0.78881085 -0.6980555 178 178 178
0.07560428 -0.83319134 -0.5211484 132 132 132
-0.5253166 -1.2635747 -1.3178974 336 336 336
-0.1876607 -1.132762 -1.3027487 332 332 332
0.123799935 -0.6901759 -0.7302164 186 186 186
0.24231093 -0.78865457 -0.6341687 161 161 161
0.037613183 -0.7740857 -0.71284086 181 181 181
0.106390305 -0.79420453 -0.6995849 178 178 178
0.07408139 -0.7683872 -0.52726597 134 134 134
0.14084205 -0.7258214 -0.5242219 133 133 133
0.09058788 -0.75093377 -0.52058905 132 132 132
0.17391625 -0.8476536 -0.51939726 132 132 132
0.21528786 -0.8406738 -0.59445274 151 151 151
0.14078298 -0.75613 -0.49369866 125 125 125
0.35367906 -0.8278291 -0.47822475 121 121 121
0.14496651 -0.725593 -0.51183367 130 130 130
-0.5672864 -1.263549 -1.2207204 311 311 311
-0.50290895 -1.1295292 -1.2916908 329 329 329
-0.15909886 -1.0277237 -1.3230461 337 337 337
0.10669033 -0.7664268 -0.5090351 129 129 129
-0.5786091 -1.1714783 -1.3387315 341 341 341
-0.53618515 -1.120049 -1.2938961 329 329 329
-0.18658894 -0.8214492 -0.48562852 123 123 123
0.14386092 -0.84284586 -0.48983023 124 124 124
0.2860584 -0.75939393 -0.6186608 157 157 157
-0.37917343 -1.2451011 -1.1741544 299 299 299
-0.5260079 -1.2657584 -0.6543279 166 166 166
-0.44091782 -1.261651 -0.6092724 155 155 155
-0.056177974 -0.83062476 -0.48115915 122 122 122
0.37420237 -0.82488215 -0.47905052 122 122 122
0.099048 -0.74363256 -0.51795423 132 132 132
-0.6230482 -1.222419 -1.3809881 352 352 352
-0.48991218 -1.1195843 -1.2912531 329 329 329
0.00943844 -0.768525 -0.6932103 176 176 176
-0.6463194 -1.2185462 -1.374916 350 350 350
0.02774942 -0.7523792 -0.71000594 181 181 181
0.36425227 -0.82756966 -0.47820556 121 121 121
0.16856869 -0.74056435 -0.5276847 134 134 134
-0.0345283 -0.81908035 -0.70174146 178 178 178
0.11279246 -0.6834804 -0.72426075 184 184 184
0.12029445 -0.75541675 -0.5038429 128 128 128
0.1804507 -0.77556795 -0.5451164 139 139 139
0.04845845 -0.7963435 -0.7053604 179 179 179
0.0029788017 -0.77118677 -0.69670963 177 177 177
0.13247292 -0.69163865 -0.72859985 185 185 185
-0.5178219 -1.1163268 -1.2576205 320 320 320
-0.013299271 -0.8278916 -0.38668415 98 98 98
-0.5521188 -1.2605262 -0.65493494 167 167 167
0.15529366 -0.7417731 -0.5010047 127 127 127
0.100498214 -0.749732 -0.5132669 130 130 130
0.27215683 -0.7654211 -0.624504 159 159 159
0.11474203 -0.7632614 -0.7161135 182 182 182
-0.1778337 -0.8270975 -0.4383528 111 111 111
0.0678478 -0.80722994 -0.70466644 179 179 179
0.02227299 -0.77475715 -0.701605 178 178 178
0.12203726 -0.754568 -0.7152954 182 182 182
-0.62082887 -1.2409089 -1.1410381 290 290 290
-0.49055997 -1.249799 -1.1899108 303 303 303
0.36042124 -0.77303404 -0.50188315 127 127 127
0.11910634 -0.7681935 -0.50656337 129 129 129
0.11067904 -0.81305814 -0.50006706 127 127 127
0.07272161 -0.78370106 -0.52881545 134 134 134
-0.13952047 -0.8260671 -0.5249988 133 133 133
0.026894987 -0.83329016 -0.694859 177 177 177
0.08654679 -0.7632997 -0.5178576 132 132 132
0.06576538 -0.8274746 -0.36541852 93 93 93
0.078389935 -0.7610548 -0.51387537 131 131 131
0.16143495 -0.72261566 -0.52046734 132 132 132
0.17035297 -0.7330834 -0.5336327 136 136 136
0.08180286 -0.7216917 -0.5354935 136 136 136
0.13363114 -0.7152474 -0.71654296 182 182 182
-0.151427 -0.81954116 -0.5583194 142 142 142
-0.0014241636 -0.78723234 -0.68675226 175 175 175
0.04083386 -0.80174816 -0.6996824 178 178 178
0.11121969 -0.722712 -0.5275002 134 134 134
0.10676265 -0.7256932 -0.5617449 143 143 143
-0.3326094 -1.2629359 -1.22577 312 312 312
0.08002104 -0.7238309 -0.540696 137 137 137
0.071220495 -0.8353734 -0.51954633 132 132 132
0.26879773 -0.8340893 -0.53656393 136 136 136
0.12633197 -0.722698 -0.5205226 132 132 132
0.17112225 -0.72877556 -0.5336329 136 136 136
0.030375406 -0.8262149 -0.6978164 177 177 177
0.13847394 -0.769752 -0.50571465 128 128 128
0.05748769 -0.7798977 -0.7196869 183 183 183
0.037512258 -0.8232552 -0.6979629 177 177 177
-0.5187017 -1.2602776 -0.98749626 251 251 251
0.12467519 -0.7515327 -0.7161444 182 182 182
-0.3739764 -1.2730225 -0.56937015 145 145 145
0.11585365 -0.72789145 -0.559813 142 142 142
0.0606481 -0.70225924 -0.7390223 188 188 188
0.13456874 -0.6482347 -0.7516863 191 191 191
0.13352823 -0.78877777 -0.6976113 177 177 177
0.07559071 -0.8331061 -0.5206185 132 132 132
-0.5262091 -1.2651036 -1.3192337 336 336 336
-0.18682826 -1.1307158 -1.2994202 331 331 331
0.1237891 -0.690071 -0.72968304 186 186 186
0.24187289 -0.7884453 -0.6339488 161 161 161
0.037549935 -0.7737665 -0.7125976 181 181 181
0.10632966 -0.79409957 -0.6991981 178 178 178
0.07436342 -0.76829326 -0.52684027 134 134 134
0.14076273 -0.72548705 -0.5235892 133 133 133
0.09050663 -0.7507388 -0.52010727 132 132 132
0.17415425 -0.84604204 -0.5185074 132 132 132
0.21507952 -0.8404705 -0.59392715 151 151 151
0.111747295 -0.7175691 -0.7234469 184 184 184
0.14069852 -0.75594085 -0.49322584 125 125 125
0.3540222 -0.8269405 -0.47755596 121 121 121
0.14521874 -0.7254524 -0.51146376 130 130 130
-0.5675525 -1.2648337 -1.2209436 311 311 311
-0.50387526 -1.1307375 -1.2928752 329 329 329
-0.15904307 -1.0278716 -1.3228661 337 337 337
0.106740355 -0.7661682 -0.50867283 129 129 129
-0.5831789 -1.1756881 -1.3433995 342 342 342
-0.5385128 -1.1224042 -1.2957335 330 330 330
-0.18767935 -0.82292753 -0.4865397 124 124 124
0.14385349 -0.8426302 -0.48919684 124 124 124
0.28604853 -0.7592011 -0.6180383 157 157 157
-0.380593 -1.2480059 -1.1770952 300 300 300
-0.5291622 -1.2683238 -0.6558276 167 167 167
-0.44218093 -1.262697 -0.6097382 155 155 155
-0.056314677 -0.83145773 -0.4807665 122 122 122
0.3744506 -0.82453376 -0.47888866 122 122 122
0.099255174 -0.74341005 -0.51753414 131 131 131
-0.624971 -1.2253144 -1.3832312 352 352 352
-0.48958516 -1.1206311 -1.2916287 329 329 329
0.008982211 -0.76836044 -0.69294226 176 176 176
-0.65200275 -1.2248465 -1.3822949 352 352 352
0.028299674 -0.75112087 -0.70902663 180 180 180
0.3643065 -0.82768536 -0.477977 121 121 121
0.1684885 -0.740403 -0.5272393 134 134 134
-0.03469196 -0.8192426 -0.7016715 178 178 178
0.11272535 -0.68333703 -0.72383463 184 184 184
0.12026485 -0.7553269 -0.50331265 128 128 128
0.04844755 -0.7963268 -0.7049226 179 179 179
0.0029560626 -0.7711608 -0.69625497 177 177 177
0.13247603 -0.6912881 -0.72766185 185 185 185
-0.518232 -1.1170566 -1.2581652 320 320 320
-0.012788817 -0.8265762 -0.38640073 98 98 98
-0.5541407 -1.262351 -0.65566045 167 167 167
0.10034737 -0.74940515 -0.5126399 130 130 130
0.27127796 -0.76417094 -0.62363607 159 159 159
0.11484553 -0.7629047 -0.71578544 182 182 182
-0.17935273 -0.82773155 -0.43904093 111 111 111
0.06718422 -0.8075368 -0.70482105 179 179 179
0.021756127 -0.77566 -0.7014903 178 178 178
0.12203244 -0.7543183 -0.7146191 182 182 182
-0.63428795 -1.2559655 -1.1562979 294 294 294
-0.47574717 -1.2301897 -1.1694325 298 298 298
0.3604877 -0.7731622 -0.5017095 127 127 127
0.11057594 -0.81317925 -0.49986315 127 127 127
0.07266232 -0.7834028 -0.5282333 134 134 134
-0.5851052 -1.2749683 -0.8581071 218 218 218
0.026794635 -0.8333384 -0.6946442 177 177 177
0.086589485 -0.76222587 -0.5165067 131 131 131
0.06569765 -0.82757413 -0.364994 93 93 93
-0.12571716 -0.8242528 -0.40816483 104 104 104
0.078293346 -0.7610092 -0.5140588 131 131 131
0.16095364 -0.7226568 -0.5203048 132 132 132
0.1694578 -0.7333307 -0.5338646 136 136 136
0.1329465 -0.7156433 -0.7167595 182 182 182
-0.1512885 -0.8193189 -0.5582527 142 142 142
-0.0021022111 -0.7870214 -0.6869217 175 175 175
0.040899463 -0.80184925 -0.7002015 178 178 178
0.11120047 -0.72282207 -0.5277085 134 134 134
0.1064793 -0.72544974 -0.56184286 143 143 143
-0.33539814 -1.2661422 -1.2288679 313 313 313
0.079983525 -0.72404635 -0.54103124 137 137 137
0.071748406 -0.8351691 -0.51938695 132 132 132
0.12634939 -0.7227769 -0.52098036 132 132 132
0.17111894 -0.72894853 -0.5339019 136 136 136
0.030384012 -0.82641935 -0.69817406 178 178 178
0.13846168 -0.7697705 -0.5058281 128 128 128
0.05744098 -0.7804506 -0.72052866 183 183 183
0.03756208 -0.8234477 -0.69859177 178 178 178
-0.5171711 -1.2582834 -0.98596716 251 251 251
0.124680534 -0.7522712 -0.7172714 182 182 182
-0.37363845 -1.2725743 -0.56954926 145 145 145
0.115626544 -0.72823304 -0.5597356 142 142 142
0.059849374 -0.70349586 -0.7396141 188 188 188
0.1345904 -0.64876306 -0.7527108 191 191 191
0.13289419 -0.79006076 -0.6983569 178 178 178
0.07645128 -0.83265257 -0.52011967 132 132 132
-0.5308668 -1.2723944 -1.328978 338 338 338
-0.18619551 -1.1298629 -1.2988856 331 331 331
0.12305801 -0.6904416 -0.7310203 186 186 186
0.037483864 -0.77429724 -0.7134125 181 181 181
0.10561822 -0.79429555 -0.69916433 178 178 178
0.07432354 -0.76852715 -0.5271813 134 134 134
0.14119232 -0.72499806 -0.5234764 133 133 133
0.09029177 -0.75046647 -0.520212 132 132 132
0.17418027 -0.84555125 -0.5184529 132 132 132
0.21513781 -0.8403306 -0.5941533 151 151 151
0.14068781 -0.7558892 -0.49320096 125 125 125
0.35401806 -0.82677877 -0.4777594 121 121 121
0.14519782 -0.72575283 -0.51186883 130 130 130
-0.57021874 -1.268877 -1.2260827 312 312 312
-0.50759953 -1.1360174 -1.3008676 331 331 331
-0.16222076 -1.0333935 -1.3298923 339 339 339
0.10670908 -0.76639557 -0.50899595 129 129 129
-0.53859514 -1.1228936 -1.2969593 330 330 330
-0.1883008 -0.8237287 -0.4864267 124 124 124
0.28516632 -0.7597599 -0.61883533 157 157 157
-0.38767815 -1.2593879 -1.1888442 303 303 303
-0.5247877 -1.261939 -0.6520286 166 166 166
-0.43993425 -1.2589902 -0.6077942 154 154 154
-0.05657129 -0.83213484 -0.48146725 122 122 122
0.3746252 -0.8250153 -0.47935396 122 122 122
0.09922689 -0.74357736 -0.5178036 132 132 132
-0.6325681 -1.2351114 -1.3974078 356 356 356
0.008961707 -0.7687149 -0.6938071 176 176 176
-0.6583161 -1.232933 -1.3942968 355 355 355
0.028320037 -0.7513677 -0.70976084 180 180 180
