ply
format ascii 1.0
comment author: Greg Turk
comment object: another cube
element vertex 1035
property float x
property float y
property float z
property uchar red
property uchar green
property uchar blue
end_header
0.26062718 -0.6129874 -0.46483564 118 118 118
0.2690109 -0.593614 -0.48655224 124 124 124
0.069608815 -0.6287073 -0.35312563 90 90 90
0.05999556 -0.5255408 -0.37755245 96 96 96
0.24182977 -0.5662525 -0.46657968 118 118 118
0.089357994 -0.6475487 -0.39665633 101 101 101
0.21694091 -0.62876344 -0.47200269 120 120 120
0.2955879 -0.6395459 -0.3418045 87 87 87
0.07791608 -0.6422421 -0.29466027 75 75 75
0.23706934 -0.56084454 -0.46453053 118 118 118
0.256137 -0.5659966 -0.4644236 118 118 118
0.25512254 -0.55262846 -0.45999378 117 117 117
0.34061974 -0.6308913 -0.36066025 91 91 91
0.32076174 -0.6380454 -0.34790117 88 88 88
0.031125218 -0.6439591 -0.28789455 73 73 73
0.20591229 -0.5705879 -0.4785422 122 122 122
-0.0053491145 -0.6275234 -0.29112285 74 74 74
0.26537365 -0.6325786 -0.45138288 115 115 115
0.2802384 -0.63437015 -0.33721852 85 85 85
0.2924555 -0.64770615 -0.33764315 86 86 86
0.18705837 -0.6372303 -0.3186705 81 81 81
0.05837843 -0.60922813 -0.36654836 93 93 93
0.098171376 -0.64623237 -0.40010136 102 102 102
0.061483905 -0.64393425 -0.29263783 74 74 74
0.10220958 -0.6400455 -0.6254903 159 159 159
0.2790643 -0.5855733 -0.5144793 131 131 131
0.20592268 -0.63402396 -0.32314014 82 82 82
0.09429906 -0.6432924 -0.38863373 99 99 99
0.20484178 -0.5720749 -0.47924906 122 122 122
0.1825938 -0.62557423 -0.49163985 125 125 125
0.529674 -1.2478321 -0.9297274 237 237 237
0.16195394 -0.57947105 -0.5096614 129 129 129
0.17071174 -0.5376786 -0.5004289 127 127 127
0.3357663 -0.6309619 -0.661945 168 168 168
0.339561 -0.63165915 -0.6539732 166 166 166
0.2494097 -0.5395138 -0.4616617 117 117 117
0.24634756 -0.6331041 -0.4652751 118 118 118
0.16881427 -0.63426167 -0.32719308 83 83 83
0.21796793 -0.53739303 -0.47173488 120 120 120
0.51578474 -1.2308646 -0.9181755 234 234 234
0.5013895 -1.271626 -0.8762575 223 223 223
0.46644083 -1.2694609 -0.84649795 215 215 215
0.26188394 -0.52238923 -0.5078745 129 129 129
0.15997763 -0.63361645 -0.3186264 81 81 81
0.3559937 -0.6409619 -0.37293845 95 95 95
0.17684616 -0.6325355 -0.32451403 82 82 82
0.07931571 -0.6402596 -0.3514883 89 89 89
0.6208881 -1.2724862 -0.8921295 227 227 227
0.10860581 -1.2518268 -0.7771501 198 198 198
0.5540582 -1.2642593 -0.9034874 230 230 230
0.0010459274 -0.63146394 -0.2952386 75 75 75
0.19612607 -0.55037934 -0.4869715 124 124 124
0.33829516 -0.6218357 -0.65662193 167 167 167
0.0615485 -0.4654747 -0.39763528 101 101 101
0.06569657 -0.42527992 -0.40939814 104 104 104
0.072193876 -0.5195387 -0.37969726 96 96 96
0.07132101 -0.4221198 -0.4108404 104 104 104
-0.057722136 -0.6394367 -0.45682287 116 116 116
0.07812067 -0.64307517 -0.3730731 95 95 95
0.0128741115 -0.6512352 -0.28991383 73 73 73
0.5537182 -1.2680075 -0.95001775 242 242 242
-0.23251575 -1.2627697 -0.726015 185 185 185
0.38898534 -1.275251 -0.947584 241 241 241
0.1826465 -0.6343686 -0.32115066 81 81 81
0.054793164 -0.6554614 -0.29562873 75 75 75
0.14628372 -1.2587314 -0.8498053 216 216 216
0.2655061 -0.84674335 -0.4267032 108 108 108
0.056347787 -0.757633 -0.39449537 100 100 100
0.2600981 -0.53701735 -0.49617326 126 126 126
0.33653933 -0.60880107 -0.6516427 166 166 166
0.21656829 -0.5121484 -0.45279533 115 115 115
0.059306502 -0.51550114 -0.38428688 97 97 97
-0.05659324 -0.6146264 -0.55160224 140 140 140
-0.1020467 -0.6502453 -0.57375 146 146 146
-0.11600509 -0.63262135 -0.5807346 148 148 148
-0.11529875 -0.6390575 -0.5785461 147 147 147
-0.121158004 -0.63007474 -0.5844051 149 149 149
-0.11439398 -0.6092349 -0.57692295 147 147 147
0.0697224 -0.51706594 -0.37296188 95 95 95
-0.092443824 -0.53830624 -0.5917914 150 150 150
0.2842934 -0.65694153 -0.39794785 101 101 101
0.11270939 -0.64177895 -0.40046334 102 102 102
0.1702932 -0.6451747 -0.32054693 81 81 81
0.26320085 -0.6450839 -0.32941908 84 84 84
-0.2183677 -1.2595215 -0.79521304 202 202 202
0.15138888 -0.6501734 -0.31460667 80 80 80
-0.29400662 -1.2661805 -0.8284198 211 211 211
0.0597962 -0.64661616 -0.35869485 91 91 91
0.21356125 -0.633741 -0.33203542 84 84 84
-0.02957584 -0.6321504 -0.30717546 78 78 78
0.25090748 -0.63330483 -0.45615184 116 116 116
0.2611943 -0.63670063 -0.45193034 115 115 115
0.09373684 -0.6372111 -0.36237907 92 92 92
0.18897468 -0.557896 -0.4871416 124 124 124
0.2539774 -0.5816519 -0.45738423 116 116 116
0.22296633 -0.5867897 -0.46903777 119 119 119
0.20722866 -0.5276901 -0.49488795 126 126 126
0.25238907 -0.5276911 -0.4935087 125 125 125
0.23512837 -0.5240321 -0.4863974 124 124 124
0.20064381 -0.6066656 -0.48065847 122 122 122
0.24591137 -0.5896234 -0.458313 116 116 116
0.19792052 -0.5571008 -0.48177618 122 122 122
0.07404046 -0.62373114 -0.3551132 90 90 90
0.18523501 -0.6557688 -0.48691577 124 124 124
0.2409807 -0.6131699 -0.4605536 117 117 117
0.061566576 -0.5051711 -0.3796774 96 96 96
0.21819164 -0.56946933 -0.47284 120 120 120
0.07045247 -0.6399568 -0.28944802 73 73 73
0.17409313 -0.5390737 -0.49834514 127 127 127
0.08412535 -0.51517946 -0.37141675 94 94 94
0.26119936 -0.612025 -0.46341276 118 118 118
0.2693676 -0.59344685 -0.48537773 123 123 123
0.07133101 -0.6282125 -0.35250676 89 89 89
0.06045781 -0.5248594 -0.37654608 96 96 96
0.24132681 -0.5651717 -0.46582413 118 118 118
0.08960702 -0.64637953 -0.3961351 101 101 101
0.21760103 -0.62810713 -0.4711848 120 120 120
0.29597774 -0.63897735 -0.34075135 86 86 86
0.07828159 -0.64163977 -0.29374993 74 74 74
0.23754832 -0.56025374 -0.4635613 118 118 118
0.25662264 -0.56544286 -0.46350914 118 118 118
0.25564256 -0.5521856 -0.45932877 117 117 117
0.34099764 -0.63029367 -0.35952175 91 91 91
0.3211844 -0.637569 -0.34695357 88 88 88
0.20638059 -0.56990224 -0.47742385 121 121 121
-0.004986629 -0.62687737 -0.29022908 74 74 74
0.26726305 -0.6319816 -0.45160395 115 115 115
0.2940236 -0.64702725 -0.33732313 86 86 86
0.05910647 -0.6086731 -0.3657148 93 93 93
0.100588724 -0.6453748 -0.39996254 101 101 101
0.063973576 -0.6441015 -0.2917648 74 74 74
0.10240271 -0.63920754 -0.6246715 159 159 159
0.28169733 -0.587368 -0.51945853 132 132 132
0.094186604 -0.6426979 -0.38761002 98 98 98
0.20498633 -0.57171345 -0.47793967 121 121 121
0.1829797 -0.6252421 -0.49047524 125 125 125
0.3086917 -0.63955534 -0.5895808 150 150 150
0.5321791 -1.2534744 -0.93592006 238 238 238
0.16242942 -0.5787746 -0.50861084 129 129 129
0.17120314 -0.537043 -0.49948865 127 127 127
0.33602637 -0.629763 -0.65961653 168 168 168
0.3400792 -0.6310672 -0.6530523 166 166 166
0.2499291 -0.53904164 -0.46095222 117 117 117
0.24675399 -0.6323179 -0.46396756 118 118 118
0.16920733 -0.63364255 -0.32618725 83 83 83
0.21844444 -0.5366717 -0.47047913 119 119 119
0.5165613 -1.231685 -0.91899425 234 234 234
0.4682534 -1.2743989 -0.85132045 217 217 217
0.26242006 -0.52185285 -0.50706196 129 129 129
0.16036882 -0.6329948 -0.31762153 80 80 80
0.35678643 -0.64124095 -0.37307477 95 95 95
0.17723772 -0.6319728 -0.32357448 82 82 82
0.54219997 -1.2702655 -1.048333 267 267 267
0.1122 -1.2477237 -0.7760586 197 197 197
0.19617297 -0.549713 -0.48562962 123 123 123
0.061411843 -0.46405214 -0.39762396 101 101 101
0.0653756 -0.42520475 -0.40757543 103 103 103
0.07320888 -0.519242 -0.37862533 96 96 96
0.07171804 -0.42253983 -0.4085253 104 104 104
-0.056796283 -0.6388998 -0.45579094 116 116 116
0.2892039 -0.6115867 -0.55721045 142 142 142
0.26090038 -0.52098316 -0.5198326 132 132 132
0.07864686 -0.6426228 -0.3721127 94 94 94
0.013400808 -0.6516192 -0.2886188 73 73 73
-0.22792485 -1.2581757 -0.7231957 184 184 184
0.3925435 -1.2770573 -0.95171696 242 242 242
0.18342727 -0.6341101 -0.320217 81 81 81
0.05587247 -0.6548277 -0.29489708 75 75 75
0.14643131 -1.259493 -0.85070103 216 216 216
0.265795 -0.8459872 -0.42561364 108 108 108
0.05668491 -0.7569687 -0.39362228 100 100 100
0.2604602 -0.53593504 -0.49394208 125 125 125
0.3374261 -0.6089748 -0.65261567 166 166 166
0.030154541 -0.5489711 -0.39515734 100 100 100
0.059765443 -0.5148356 -0.38331956 97 97 97
-0.056078643 -0.6137464 -0.55051535 140 140 140
-0.10162142 -0.649433 -0.57289886 146 146 146
-0.1155501 -0.63177496 -0.5798326 147 147 147
-0.11464098 -0.637972 -0.57715297 147 147 147
-0.12047455 -0.62897253 -0.58296895 148 148 148
-0.11423737 -0.60872114 -0.5767504 147 147 147
0.07018146 -0.51640415 -0.37197775 94 94 94
-0.09145871 -0.5370376 -0.5895875 150 150 150
0.28495443 -0.6573434 -0.39836305 101 101 101
0.11304824 -0.64144766 -0.40000206 102 102 102
0.170673 -0.6446774 -0.3197 81 81 81
0.26380205 -0.64551795 -0.32971883 84 84 84
-0.21889699 -1.2602501 -0.79625505 203 203 203
0.15174767 -0.64977944 -0.31390375 80 80 80
-0.29181176 -1.2610683 -0.8237844 210 210 210
0.06019813 -0.64591634 -0.3577075 91 91 91
0.21396197 -0.63323057 -0.3311361 84 84 84
0.084071524 -0.6360351 -0.29858685 76 76 76
-0.081588656 -0.6451558 -0.55125123 140 140 140
-0.07695758 -0.64725626 -0.5429679 138 138 138
-0.10005382 -0.63887143 -0.5815902 148 148 148
0.0518775 -0.5110708 -0.3864333 98 98 98
-0.12318945 -0.6099492 -0.58505774 149 149 149
-0.068137646 -0.47275022 -0.6285564 160 160 160
-0.063613415 -0.6439613 -0.5177025 132 132 132
-0.07945308 -0.6137619 -0.5627949 143 143 143
-0.08933246 -0.61127734 -0.56688267 144 144 144
0.036412507 -0.65038204 -0.292445 74 74 74
-0.0053102374 -0.6453372 -0.29222584 74 74 74
0.25128537 -0.6332831 -0.45564693 116 116 116
0.22298971 -0.5868158 -0.46851557 119 119 119
0.20818302 -0.5277747 -0.49476975 126 126 126
0.2526218 -0.52742696 -0.49293453 125 125 125
0.20078848 -0.6063887 -0.48044997 122 122 122
0.24609683 -0.58937585 -0.45778602 116 116 116
0.19825074 -0.55681455 -0.48110592 122 122 122
0.18555534 -0.6554771 -0.48633432 124 124 124
0.061699823 -0.50494236 -0.37929875 96 96 96
0.21846351 -0.5693059 -0.47253042 120 120 120
0.17484464 -0.5392338 -0.49796623 126 126 126
0.084312156 -0.5150616 -0.37126142 94 94 94
0.26148844 -0.6122087 -0.4629268 118 118 118
0.26958013 -0.59319276 -0.484837 123 123 123
0.06059815 -0.52518034 -0.37620097 95 95 95
0.24151525 -0.56486213 -0.46516126 118 118 118
0.08975017 -0.6460743 -0.3957138 100 100 100
0.21779256 -0.6278 -0.47062707 120 120 120
0.29588008 -0.6391467 -0.3402803 86 86 86
0.07766816 -0.64202935 -0.29327 74 74 74
0.2575811 -0.56582963 -0.46306598 118 118 118
0.25666898 -0.5513897 -0.45950776 117 117 117
0.34091565 -0.63036704 -0.35904503 91 91 91
0.32105163 -0.63799006 -0.3462959 88 88 88
0.20587027 -0.5704115 -0.47659963 121 121 121
-0.005895436 -0.62664115 -0.29009825 73 73 73
0.267474 -0.6319413 -0.45142835 115 115 115
0.29400188 -0.6466044 -0.3364542 85 85 85
0.059216574 -0.6084275 -0.36537194 93 93 93
0.100718886 -0.6451266 -0.39961523 101 101 101
0.06399278 -0.6439129 -0.29147124 74 74 74
0.10274874 -0.6389226 -0.62448424 159 159 159
0.28214678 -0.58742106 -0.51948106 132 132 132
0.20519677 -0.57139605 -0.4773286 121 121 121
0.18319678 -0.6250204 -0.49013627 124 124 124
0.30885702 -0.6387846 -0.5880666 149 149 149
0.16557254 -1.2591637 -0.8667734 221 221 221
0.53193426 -1.252454 -0.9347084 238 238 238
0.16162494 -0.57774 -0.5082684 129 129 129
0.17173348 -0.53711104 -0.4992891 127 127 127
0.33578062 -0.6291676 -0.6583752 167 167 167
0.34035254 -0.63074577 -0.65264285 166 166 166
0.16883853 -0.63182676 -0.32608402 83 83 83
0.21933234 -0.5372403 -0.47018558 119 119 119
0.46785825 -1.2724371 -0.84987825 216 216 216
0.26298514 -0.5215841 -0.50726295 129 129 129
0.16005316 -0.6330128 -0.3173102 80 80 80
0.3572622 -0.64151114 -0.37338555 95 95 95
0.17718881 -0.63228893 -0.32319868 82 82 82
0.538086 -1.2560854 -1.0312777 262 262 262
0.61860496 -1.2609856 -0.879512 224 224 224
0.11335207 -1.2383769 -0.7674777 195 195 195
0.19639918 -0.5495336 -0.48533875 123 123 123
0.061562955 -0.463826 -0.3972525 101 101 101
0.06554194 -0.42497408 -0.4071827 103 103 103
0.073328555 -0.5190339 -0.37828463 96 96 96
0.07188271 -0.42231312 -0.40813845 104 104 104
-0.056585357 -0.6385959 -0.45559978 116 116 116
0.26126224 -0.521078 -0.5202696 132 132 132
0.07877978 -0.642293 -0.37165242 94 94 94
-0.22864296 -1.2603142 -0.7259656 185 185 185
0.39094353 -1.2656219 -0.93927807 239 239 239
0.055887684 -0.6546536 -0.29464042 75 75 75
0.14588661 -1.2603732 -0.85107106 217 217 217
0.67801154 -1.2334435 -0.9981218 254 254 254
0.26515543 -0.84486747 -0.42462063 108 108 108
0.6555729 -1.248279 -0.86767787 221 221 221
0.05652307 -0.7572148 -0.39356333 100 100 100
0.26033023 -0.53597546 -0.49278313 125 125 125
0.3383409 -0.6088141 -0.6541789 166 166 166
0.029851452 -0.54872787 -0.39487672 100 100 100
0.059701905 -0.5147692 -0.3831259 97 97 97
-0.056373045 -0.6136807 -0.5506748 140 140 140
-0.10166721 -0.6493964 -0.57300156 146 146 146
-0.11497085 -0.6312763 -0.58009493 147 147 147
-0.11449237 -0.63768387 -0.57739025 147 147 147
-0.11984803 -0.62935257 -0.5825272 148 148 148
-0.11437394 -0.60856414 -0.5770164 147 147 147
0.07063481 -0.5163078 -0.37198424 94 94 94
-0.09092493 -0.5372536 -0.5890831 150 150 150
0.28732887 -0.6582937 -0.40131313 102 102 102
0.11420783 -0.64291584 -0.40010208 102 102 102
0.17102024 -0.6451246 -0.31964833 81 81 81
0.26525456 -0.64732087 -0.331065 84 84 84
-0.21442772 -1.2544767 -0.7934487 202 202 202
0.15186231 -0.64978576 -0.3137858 80 80 80
-0.2904175 -1.2599331 -0.8238277 210 210 210
0.059771895 -0.64558446 -0.3575558 91 91 91
0.08424689 -0.63534385 -0.29762214 75 75 75
-0.08143292 -0.64501095 -0.5514973 140 140 140
-0.07684584 -0.64716923 -0.5433039 138 138 138
-0.099671885 -0.638451 -0.58134955 148 148 148
0.052023485 -0.510827 -0.38604587 98 98 98
-0.122804806 -0.6095407 -0.5848498 149 149 149
-0.06742488 -0.47213453 -0.6273636 159 159 159
-0.078949556 -0.61318 -0.56213677 143 143 143
-0.08891024 -0.6108064 -0.56647503 144 144 144
0.03648129 -0.6500749 -0.29204637 74 74 74
-0.005288422 -0.64514756 -0.292019 74 74 74
0.25175744 -0.6323377 -0.45358488 115 115 115
0.20872049 -0.526809 -0.4926962 125 125 125
0.20117968 -0.6054715 -0.47856608 122 122 122
0.24666135 -0.5885674 -0.45602754 116 116 116
0.19859459 -0.55597866 -0.47938064 122 122 122
0.1862771 -0.6549777 -0.4844645 123 123 123
0.062411115 -0.5040363 -0.37746677 96 96 96
0.21889175 -0.5683997 -0.47065678 120 120 120
0.17527972 -0.5383009 -0.49607548 126 126 126
0.08484218 -0.5140126 -0.369283 94 94 94
0.2619813 -0.61131656 -0.46095225 117 117 117
0.2704356 -0.5922885 -0.48319826 123 123 123
0.07113981 -0.62762636 -0.34982046 89 89 89
0.06111425 -0.5241145 -0.37421122 95 95 95
0.24186713 -0.56397986 -0.46343812 118 118 118
0.08945407 -0.6448021 -0.39384165 100 100 100
0.29636037 -0.6383783 -0.33859816 86 86 86
0.07812008 -0.6410079 -0.29134932 74 74 74
0.25713232 -0.55056477 -0.45777753 116 116 116
0.34142795 -0.62969375 -0.357482 91 91 91
0.32155767 -0.6373065 -0.34472206 87 87 87
0.20629473 -0.5695176 -0.47476485 121 121 121
-0.0054316223 -0.6255243 -0.28809175 73 73 73
0.26868394 -0.63208145 -0.44985053 114 114 114
0.29415965 -0.6459944 -0.33464268 85 85 85
0.059611827 -0.6072643 -0.36357716 92 92 92
0.101325825 -0.6442528 -0.39784315 101 101 101
0.10340758 -0.63806546 -0.6228628 158 158 158
0.28364354 -0.5886756 -0.5196525 132 132 132
0.18395792 -0.624076 -0.48858413 124 124 124
0.30940908 -0.6391492 -0.58632076 149 149 149
0.16489664 -1.2662103 -0.8731967 222 222 222
0.5346584 -1.2612807 -0.94363606 240 240 240
0.1620274 -0.57674074 -0.5062382 129 129 129
0.17216457 -0.53622127 -0.4975104 126 126 126
0.3359939 -0.62823784 -0.656201 167 167 167
0.34070998 -0.6301992 -0.65134513 166 166 166
0.2197851 -0.5362778 -0.46817842 119 119 119
0.26343998 -0.5207443 -0.50547874 128 128 128
0.16050218 -0.6321683 -0.315591 80 80 80
0.35827118 -0.64208966 -0.37366787 95 95 95
0.17764486 -0.63142526 -0.3214455 81 81 81
0.53418654 -1.2510821 -1.0234725 260 260 260
0.61229146 -1.2529025 -0.869102 221 221 221
0.11130917 -1.2302547 -0.7605871 193 193 193
0.19699304 -0.54896057 -0.48363802 123 123 123
0.062432513 -0.46287975 -0.39552537 100 100 100
0.06659956 -0.42446005 -0.40532807 103 103 103
0.0742982 -0.5179471 -0.3766658 96 96 96
0.07314773 -0.42127195 -0.40659395 103 103 103
-0.05658783 -0.6372607 -0.453652 115 115 115
0.29061863 -0.61359084 -0.55942476 142 142 142
0.26298344 -0.52057815 -0.5198796 132 132 132
0.078384936 -0.64137924 -0.3694984 94 94 94
-0.23201238 -1.261456 -0.72476125 184 184 184
0.38777417 -1.2617996 -0.933143 237 237 237
0.055797055 -0.6540209 -0.29251072 74 74 74
0.14515314 -1.265751 -0.8556249 218 218 218
0.6815632 -1.2411245 -1.0063998 256 256 256
0.056708843 -0.7565691 -0.3920531 99 99 99
0.2607708 -0.5350824 -0.49087325 125 125 125
0.030424789 -0.5475826 -0.39267614 100 100 100
0.06022896 -0.5136929 -0.38110992 97 97 97
-0.05608757 -0.6126116 -0.54872084 139 139 139
-0.101375535 -0.64822143 -0.5708641 145 145 145
-0.114748195 -0.63018614 -0.578145 147 147 147
-0.114247724 -0.63656414 -0.57537675 146 146 146
-0.119565204 -0.62818784 -0.580426 148 148 148
-0.11406948 -0.6074025 -0.5749202 146 146 146
0.07115491 -0.5152628 -0.3700308 94 94 94
-0.09056182 -0.5361107 -0.58699965 149 149 149
0.11458696 -0.64201206 -0.3983167 101 101 101
0.17145921 -0.6443398 -0.3179967 81 81 81
-0.21707715 -1.2587048 -0.796605 203 203 203
-0.2929194 -1.2629286 -0.8258724 210 210 210
0.060134917 -0.6446819 -0.35580084 90 90 90
0.08407726 -0.6341245 -0.29550067 75 75 75
-0.08165692 -0.64452887 -0.54962015 140 140 140
-0.07341267 -0.6397711 -0.5680394 144 144 144
-0.07667582 -0.64691436 -0.54151106 138 138 138
-0.099133596 -0.63711464 -0.5794239 147 147 147
0.05211933 -0.5096963 -0.38399437 97 97 97
-0.122519895 -0.60840774 -0.582942 148 148 148
-0.06638236 -0.47121662 -0.62552154 159 159 159
-0.08838759 -0.60971284 -0.56458366 143 143 143
0.036385834 -0.64934677 -0.29017535 73 73 73
-0.0056148767 -0.6441304 -0.2900593 73 73 73
0.22413906 -0.6299149 -0.32661805 83 83 83
0.25181726 -0.6316431 -0.4533831 115 115 115
0.20926085 -0.5262879 -0.49244636 125 125 125
0.19880445 -0.55576694 -0.4788972 122 122 122
0.18643895 -0.6547427 -0.48398226 123 123 123
0.06259094 -0.50380826 -0.37698722 96 96 96
0.21924962 -0.56817305 -0.47028857 119 119 119
0.17611703 -0.5378076 -0.4958604 126 126 126
0.26263392 -0.61077344 -0.460858 117 117 117
0.2705855 -0.59216094 -0.4826933 123 123 123
0.07124102 -0.6274158 -0.3493824 89 89 89
0.061198413 -0.52382743 -0.37384772 95 95 95
0.24202779 -0.5638349 -0.46292382 118 118 118
0.08956487 -0.6445691 -0.3933615 100 100 100
0.29705077 -0.6387811 -0.3379175 86 86 86
0.25840792 -0.5496692 -0.45780253 116 116 116
0.34206873 -0.6299076 -0.3569001 91 91 91
0.32249862 -0.6374417 -0.34419578 87 87 87
0.20716657 -0.56927824 -0.47450447 120 120 120
-0.0054537654 -0.6257249 -0.2874555 73 73 73
0.26881194 -0.6320031 -0.44943565 114 114 114
0.29426682 -0.6460017 -0.3342893 85 85 85
0.059729755 -0.60704046 -0.36312956 92 92 92
0.101423 -0.6440773 -0.39744037 101 101 101
0.10357532 -0.6378205 -0.6223828 158 158 158
0.18409666 -0.62387204 -0.48805082 124 124 124
0.30953193 -0.63893163 -0.585613 149 149 149
0.5371643 -1.2665695 -0.9476272 241 241 241
0.16209972 -0.5765601 -0.50579786 128 128 128
0.17272379 -0.5359007 -0.49731076 126 126 126
0.33572963 -0.6276038 -0.65548676 167 167 167
0.34115764 -0.6300467 -0.65120375 166 166 166
0.22013399 -0.5359646 -0.4679128 119 119 119
0.26434362 -0.52026474 -0.50562984 128 128 128
0.16106094 -0.6326684 -0.31501013 80 80 80
0.35963452 -0.64408576 -0.37408084 95 95 95
0.17809635 -0.63163245 -0.3209893 81 81 81
0.534235 -1.2514117 -1.0235133 260 260 260
0.19716746 -0.548833 -0.4832332 123 123 123
0.06261231 -0.46268922 -0.39514965 100 100 100
0.06678788 -0.42428303 -0.40501243 103 103 103
0.07446943 -0.51772594 -0.37618792 95 95 95
0.07335894 -0.4210734 -0.40618783 103 103 103
-0.056525916 -0.6370573 -0.45340067 115 115 115
0.2906815 -0.6130617 -0.5580559 142 142 142
0.26316407 -0.520361 -0.51913685 132 132 132
0.07849234 -0.6411436 -0.36902177 94 94 94
0.38759363 -1.2612417 -0.93225014 237 237 237
0.14457959 -1.2688494 -0.85702825 218 218 218
0.68595076 -1.2493402 -1.0141858 258 258 258
0.26591402 -0.8479586 -0.42593944 108 108 108
0.056455716 -0.757041 -0.39157152 99 99 99
0.26100308 -0.53505063 -0.4904747 125 125 125
0.03013447 -0.54714787 -0.39222205 100 100 100
0.060356632 -0.51311255 -0.3808722 97 97 97
-0.056093514 -0.61256933 -0.5483154 139 139 139
-0.10170388 -0.6479157 -0.57048655 145 145 145
-0.11506891 -0.6299175 -0.5777765 147 147 147
-0.11461404 -0.63650537 -0.5749379 146 146 146
-0.11961272 -0.6281414 -0.5800145 147 147 147
-0.114767104 -0.60677505 -0.57465386 146 146 146
0.071397126 -0.51504976 -0.36967754 94 94 94
-0.089769065 -0.53548664 -0.5869511 149 149 149
0.2909716 -0.6579138 -0.40237308 102 102 102
0.114980556 -0.64261544 -0.39790267 101 101 101
0.17153889 -0.6447747 -0.3174795 80 80 80
0.2661686 -0.64931786 -0.33039665 84 84 84
-0.22200945 -1.265686 -0.79907334 203 203 203
-0.29478213 -1.2661651 -0.8274337 210 210 210
0.060014874 -0.6450443 -0.35524642 90 90 90
0.08415119 -0.63395894 -0.2951017 75 75 75
-0.08167046 -0.6444232 -0.549636 140 140 140
-0.07360637 -0.63992846 -0.5685948 144 144 144
-0.076697886 -0.6468246 -0.5415426 138 138 138
-0.09931713 -0.63720703 -0.57990307 147 147 147
-0.12274572 -0.6084908 -0.58350486 148 148 148
-0.066305995 -0.4710396 -0.62563676 159 159 159
-0.08850977 -0.6097362 -0.5649376 144 144 144
0.03639023 -0.64928806 -0.2899552 73 73 73
-0.005632937 -0.6440619 -0.28986734 73 73 73
0.22423004 -0.6297462 -0.32608277 83 83 83
0.20941964 -0.5264078 -0.49241036 125 125 125
0.18656982 -0.65477103 -0.48381406 123 123 123
0.06233646 -0.50359654 -0.37685573 96 96 96
0.21936029 -0.5682116 -0.47019714 119 119 119
0.1762434 -0.5378263 -0.4957646 126 126 126
0.26275378 -0.61092126 -0.46083212 117 117 117
0.2710994 -0.5919908 -0.48266846 123 123 123
0.07123253 -0.627308 -0.34930468 89 89 89
0.06132202 -0.52380455 -0.3737691 95 95 95
0.08971292 -0.6439427 -0.39360547 100 100 100
0.29712248 -0.63886505 -0.33784568 86 86 86
0.25852382 -0.5497226 -0.45770597 116 116 116
0.322577 -0.63755465 -0.34414965 87 87 87
0.2072775 -0.5693095 -0.4744085 120 120 120
-0.0053756833 -0.6256767 -0.28738904 73 73 73
0.26944077 -0.6325309 -0.44919157 114 114 114
0.29622477 -0.6464705 -0.33412647 85 85 85
0.059795722 -0.6071446 -0.3629495 92 92 92
0.10162236 -0.6442728 -0.39725387 101 101 101
0.10336387 -0.6374728 -0.62236273 158 158 158
0.1843893 -0.6240434 -0.48789787 124 124 124
0.3092965 -0.63893723 -0.58541083 149 149 149
0.53731173 -1.2676184 -0.94856524 241 241 241
0.16221377 -0.576561 -0.50567794 128 128 128
0.17285128 -0.535917 -0.49721235 126 126 126
0.3358085 -0.6276231 -0.6552388 167 167 167
0.3412586 -0.63013965 -0.6511206 166 166 166
0.26446387 -0.52026165 -0.50537485 128 128 128
0.16113563 -0.632674 -0.314914 80 80 80
0.35976988 -0.64436024 -0.37425542 95 95 95
0.53542644 -1.2531832 -1.0253029 261 261 261
0.19753967 -0.54862106 -0.48327464 123 123 123
0.062380314 -0.46193638 -0.39529276 100 100 100
0.06656574 -0.4233604 -0.4052055 103 103 103
0.07458325 -0.5173075 -0.37624764 95 95 95
0.073150605 -0.42060843 -0.40619087 103 103 103
-0.056698427 -0.637272 -0.4531796 115 115 115
0.28901798 -0.61304486 -0.55686957 142 142 142
0.26334572 -0.5194989 -0.5194999 132 132 132
0.07862575 -0.64119506 -0.36889905 94 94 94
0.38925233 -1.2615782 -0.93355906 238 238 238
0.1445876 -1.2666757 -0.8546684 217 217 217
0.6862433 -1.2504487 -1.0151871 258 258 258
0.2658868 -0.8477885 -0.42561483 108 108 108
0.056529686 -0.7568826 -0.39134425 99 99 99
0.26113138 -0.53512615 -0.49042994 125 125 125
0.030256227 -0.547229 -0.39228153 100 100 100
0.060477406 -0.5131027 -0.38082397 97 97 97
-0.05609466 -0.6126464 -0.5485611 139 139 139
-0.10151102 -0.6477016 -0.5701758 145 145 145
-0.11505325 -0.62992656 -0.5779316 147 147 147
-0.11451413 -0.6364121 -0.574878 146 146 146
-0.119525924 -0.62806547 -0.5799959 147 147 147
-0.1148078 -0.60684997 -0.57496744 146 146 146
0.07152276 -0.5150325 -0.36960125 94 94 94
-0.08936052 -0.5351425 -0.58615375 149 149 149
0.11507481 -0.64254504 -0.39771706 101 101 101
0.1716044 -0.64482486 -0.31743878 80 80 80
0.26627284 -0.6496611 -0.33070248 84 84 84
-0.22008805 -1.2607298 -0.79420435 202 202 202
0.060088202 -0.6450248 -0.35517973 90 90 90
0.084245 -0.63403445 -0.29502803 75 75 75
0.16800186 -0.58347934 -0.50828624 129 129 129
-0.08199318 -0.64447504 -0.54979557 140 140 140
-0.07408659 -0.6398757 -0.5688492 145 145 145
-0.076673076 -0.6474355 -0.5413991 138 138 138
-0.09985305 -0.6372928 -0.580204 147 147 147
-0.12440635 -0.60814893 -0.58479905 149 149 149
-0.06682272 -0.47107583 -0.62579286 159 159 159
-0.08945759 -0.60986215 -0.56548387 144 144 144
0.036288157 -0.6493483 -0.2898996 73 73 73
-0.0056529343 -0.6440369 -0.2898141 73 73 73
0.2249247 -0.6303541 -0.32635194 83 83 83
-0.1957499 -1.2732724 -0.8221098 209 209 209
0.2092112 -0.526688 -0.49192908 125 125 125
0.1867021 -0.6546725 -0.48351255 123 123 123
0.062540084 -0.50338805 -0.37656984 96 96 96
0.21924339 -0.5681623 -0.4701421 119 119 119
0.1760446 -0.5380729 -0.4955581 126 126 126
0.26276597 -0.6113026 -0.460336 117 117 117
0.2712851 -0.59183615 -0.48237732 123 123 123
0.07138145 -0.62714493 -0.34909394 89 89 89
0.061057374 -0.52428955 -0.37336108 95 95 95
0.08986032 -0.6437876 -0.39341024 100 100 100
0.29756933 -0.6389929 -0.33770844 86 86 86
0.2587205 -0.5495981 -0.45768282 116 116 116
0.3230691 -0.6377505 -0.34396634 87 87 87
0.20695053 -0.5695425 -0.47421804 120 120 120
-0.005933702 -0.6256953 -0.28707775 73 73 73
0.26961726 -0.63243186 -0.4489973 114 114 114
0.29638386 -0.64637125 -0.33387974 85 85 85
0.059947535 -0.60698247 -0.36275235 92 92 92
0.10176958 -0.6441276 -0.3970684 101 101 101
0.10354053 -0.63726664 -0.6221396 158 158 158
0.18456508 -0.6238655 -0.48762974 124 124 124
0.30949003 -0.63884175 -0.58524966 149 149 149
0.5376887 -1.2674047 -0.9487965 241 241 241
0.1618079 -0.57673675 -0.5055058 128 128 128
0.17273995 -0.5361539 -0.4970213 126 126 126
0.3359048 -0.62756157 -0.6552037 167 167 167
0.34118673 -0.6303495 -0.65095985 165 165 165
0.2643021 -0.52017516 -0.50530505 128 128 128
0.35992295 -0.6446245 -0.37419704 95 95 95
0.53556013 -1.2534362 -1.0255904 261 261 261
0.19773832 -0.5484637 -0.48303255 123 123 123
0.062578976 -0.4617535 -0.39508525 100 100 100
0.06679121 -0.4231547 -0.40493545 103 103 103
0.0747695 -0.51713014 -0.37602207 95 95 95
-0.056572154 -0.63707495 -0.4530293 115 115 115
0.28921103 -0.6129245 -0.5566629 141 141 141
0.26355788 -0.51933634 -0.5191971 132 132 132
0.07875241 -0.64109385 -0.3687844 94 94 94
0.3894993 -1.2627997 -0.9349811 238 238 238
0.14540935 -1.2646561 -0.85339904 217 217 217
0.6880664 -1.2518735 -1.0175102 259 259 259
0.2660183 -0.84756446 -0.4255415 108 108 108
0.056199804 -0.7566697 -0.391273 99 99 99
0.2612803 -0.5351064 -0.4903697 125 125 125
0.029696539 -0.5478572 -0.3919138 99 99 99
0.06007451 -0.5132123 -0.380659 97 97 97
-0.05714439 -0.6129066 -0.54882 139 139 139
-0.10163517 -0.6478034 -0.5700724 145 145 145
-0.11576693 -0.62993133 -0.5780177 147 147 147
-0.11965658 -0.62855494 -0.57979023 147 147 147
-0.11560129 -0.6068831 -0.57509625 146 146 146
0.071176305 -0.5150281 -0.3694764 94 94 94
-0.09001733 -0.5356281 -0.5860119 149 149 149
0.11546032 -0.6425462 -0.39761105 101 101 101
0.1715334 -0.6452121 -0.31724355 80 80 80
0.26660892 -0.6499174 -0.33063105 84 84 84
0.059428036 -0.6454738 -0.35495427 90 90 90
0.084304094 -0.63414276 -0.29516503 75 75 75
0.1681672 -0.5834824 -0.50842714 129 129 129
-0.08214064 -0.6446357 -0.5504054 140 140 140
-0.07424472 -0.6400619 -0.5695393 145 145 145
-0.07674457 -0.64750147 -0.541806 138 138 138
-0.09997608 -0.63738465 -0.5807409 148 148 148
-0.124531135 -0.60818934 -0.58530664 149 149 149
-0.066665694 -0.4708497 -0.6257504 159 159 159
-0.089748636 -0.61016 -0.56649864 144 144 144
-0.0056405514 -0.6440769 -0.28989354 73 73 73
0.22508931 -0.630373 -0.32631406 83 83 83
-0.1966817 -1.2752744 -0.8243959 210 210 210
0.20944382 -0.52660185 -0.492171 125 125 125
0.18619779 -0.6552275 -0.48356014 123 123 123
0.061992303 -0.5033286 -0.3771826 96 96 96
0.21936718 -0.56822544 -0.47039014 119 119 119
0.1761876 -0.5381217 -0.49582595 126 126 126
0.26295716 -0.61124927 -0.46058202 117 117 117
0.2709249 -0.5924874 -0.4828323 123 123 123
0.06955275 -0.62823176 -0.34888142 88 88 88
0.06117025 -0.52429277 -0.37366647 95 95 95
0.08879945 -0.64451206 -0.39364123 100 100 100
0.25884777 -0.54967713 -0.4579203 116 116 116
0.32313123 -0.6378664 -0.34420294 87 87 87
0.20707496 -0.56960917 -0.4744879 120 120 120
-0.005907446 -0.625711 -0.2874534 73 73 73
0.26934588 -0.6331841 -0.4494133 114 114 114
0.2957936 -0.6474744 -0.33410227 85 85 85
0.05900772 -0.6076142 -0.36306113 92 92 92
0.101009704 -0.64483327 -0.3974393 101 101 101
0.1032744 -0.63780445 -0.62267923 158 158 158
0.18376139 -0.62478364 -0.48798072 124 124 124
0.30950832 -0.639735 -0.58560836 149 149 149
0.53790313 -1.2683643 -0.9498325 242 242 242
0.16192418 -0.5768755 -0.5059895 129 129 129
0.17288144 -0.536222 -0.4973417 126 126 126
0.33605933 -0.6276861 -0.6554446 167 167 167
0.3413374 -0.6304712 -0.6511876 166 166 166
0.26446083 -0.5202916 -0.5056343 128 128 128
0.36003423 -0.64487386 -0.37460554 95 95 95
0.5351437 -1.2554163 -1.0266023 261 261 261
0.1971178 -0.54878896 -0.4836737 123 123 123
0.06213151 -0.46185166 -0.39572817 100 100 100
0.066273436 -0.4234007 -0.40550596 103 103 103
0.07461724 -0.517311 -0.3766634 96 96 96
-0.057794824 -0.6378821 -0.4534912 115 115 115
0.29155648 -0.613846 -0.55687684 142 142 142
0.26337638 -0.5196936 -0.5197676 132 132 132
0.07836041 -0.6416528 -0.3692749 94 94 94
0.38791287 -1.2651824 -0.93612796 238 238 238
0.6883389 -1.2527202 -1.0183496 259 259 259
0.056131065 -0.75698954 -0.39196688 99 99 99
0.26142567 -0.53520644 -0.49065542 125 125 125
0.029854834 -0.5477582 -0.3923425 100 100 100
0.060173944 -0.5132513 -0.38104826 97 97 97
-0.057291314 -0.61324805 -0.5499759 140 140 140
-0.10176088 -0.648066 -0.5710672 145 145 145
-0.11573683 -0.62998444 -0.5786218 147 147 147
-0.11968784 -0.6286785 -0.58055013 148 148 148
-0.115538344 -0.6069012 -0.5756379 146 146 146
0.07127999 -0.5150586 -0.36983156 94 94 94
0.1155259 -0.64260525 -0.39795 101 101 101
0.17157835 -0.64530754 -0.31757945 80 80 80
0.26667133 -0.650086 -0.33098966 84 84 84
0.059471816 -0.64552075 -0.35532123 90 90 90
0.08275685 -0.63496906 -0.29605913 75 75 75
0.167337 -0.5841722 -0.50943565 129 129 129
0.27378777 -0.61902267 -0.4817412 122 122 122
0.09553662 -0.6308475 -0.58816326 149 149 149
-0.08347212 -0.6458523 -0.55197966 140 140 140
-0.075574055 -0.6404748 -0.57131773 145 145 145
-0.07808484 -0.64902306 -0.54330087 138 138 138
-0.1011398 -0.63827354 -0.5822609 148 148 148
-0.12481783 -0.6087146 -0.58618546 149 149 149
-0.09161778 -0.61136127 -0.5684287 144 144 144
0.2242416 -0.6313305 -0.3269937 83 83 83
-0.2007841 -1.2819587 -0.8303835 211 211 211
0.20891014 -0.52603203 -0.49204427 125 125 125
0.18637963 -0.6549498 -0.483006 123 123 123
0.062149048 -0.50305086 -0.3767588 96 96 96
0.1761195 -0.53774184 -0.49517167 126 126 126
0.2625472 -0.61209214 -0.4598143 117 117 117
0.27107722 -0.5922752 -0.4823817 123 123 123
0.06966694 -0.6279576 -0.34845412 88 88 88
0.061009333 -0.5243181 -0.37277764 95 95 95
0.088917926 -0.6442362 -0.39319932 100 100 100
0.25876632 -0.54907155 -0.45740217 116 116 116
0.32311675 -0.6378381 -0.34341025 87 87 87
0.20684955 -0.56940806 -0.47378242 120 120 120
0.26948124 -0.6329756 -0.44896883 114 114 114
0.2959076 -0.6472643 -0.33363765 85 85 85
0.059130967 -0.60733384 -0.36263096 92 92 92
0.1011271 -0.644568 -0.39700675 101 101 101
0.10341841 -0.6375668 -0.6223078 158 158 158
0.18390103 -0.6245432 -0.4875378 124 124 124
0.30966163 -0.6395345 -0.585152 149 149 149
0.1608186 -0.5764954 -0.5055035 128 128 128
0.17276667 -0.5354687 -0.49688947 126 126 126
0.3354687 -0.6275353 -0.6548351 166 166 166
0.341225 -0.63011485 -0.6505997 165 165 165
0.26439026 -0.5196755 -0.5051382 128 128 128
0.35974482 -0.6449411 -0.3738386 95 95 95
0.535056 -1.254916 -1.0256422 261 261 261
0.1972809 -0.54855955 -0.48324752 123 123 123
0.062290177 -0.4615946 -0.39536613 100 100 100
0.0664532 -0.42313153 -0.40511185 103 103 103
0.07475521 -0.5170685 -0.37630808 95 95 95
-0.057607785 -0.6374675 -0.45290202 115 115 115
0.26355743 -0.5194831 -0.5193323 132 132 132
0.07844867 -0.64145863 -0.3689658 94 94 94
0.6866558 -1.2538255 -1.0172803 259 259 259
0.056584954 -0.75702083 -0.3910715 99 99 99
0.26115346 -0.534891 -0.49008983 124 124 124
0.99377584 -1.0150759 -3.2645438 832 832 832
0.98848957 -1.0042688 -3.1576116 805 805 805
0.029322743 -0.54726034 -0.39237803 100 100 100
0.059842214 -0.5125206 -0.38058734 97 97 97
-0.058266655 -0.61327124 -0.54973525 140 140 140
-0.10280819 -0.648064 -0.570659 145 145 145
-0.11625521 -0.6299256 -0.5780669 147 147 147
-0.11986779 -0.62864614 -0.5798712 147 147 147
-0.11582945 -0.6061635 -0.57533216 146 146 146
0.07077566 -0.5144861 -0.36930668 94 94 94
0.1161429 -0.6429248 -0.39691854 101 101 101
0.17171821 -0.6450542 -0.31688076 80 80 80
0.2665782 -0.6497524 -0.3303585 84 84 84
0.059818402 -0.64504075 -0.35471183 90 90 90
0.08287436 -0.6346606 -0.29557604 75 75 75
0.1674895 -0.5839443 -0.50903493 129 129 129
0.27393323 -0.61882055 -0.48130715 122 122 122
-0.083372906 -0.6455742 -0.5516594 140 140 140
-0.07548644 -0.6402229 -0.57104874 145 145 145
-0.07802822 -0.64880645 -0.543094 138 138 138
-0.10101171 -0.6379565 -0.58187866 148 148 148
-0.12510772 -0.60886705 -0.58688694 149 149 149
-0.091224894 -0.61072326 -0.5673364 144 144 144
0.2243558 -0.6310347 -0.32644385 83 83 83
0.0627545 -0.40895435 -0.42394453 108 108 108
0.07297267 -0.41152334 -0.4074816 103 103 103
0.20917633 -0.5254804 -0.49074826 125 125 125
0.18723369 -0.6542678 -0.481926 122 122 122
0.062212855 -0.50201607 -0.37539563 95 95 95
0.17638913 -0.5371917 -0.493938 125 125 125
0.26279336 -0.61153114 -0.4584979 116 116 116
0.27109322 -0.5916881 -0.48095807 122 122 122
0.06975946 -0.6271312 -0.3470609 88 88 88
0.06128043 -0.52375174 -0.37155202 94 94 94
0.08894538 -0.64308536 -0.39200577 99 99 99
0.2590318 -0.54853445 -0.4561669 116 116 116
0.3233593 -0.63729775 -0.34216782 87 87 87
0.20711233 -0.568861 -0.47254935 120 120 120
0.2699159 -0.63156056 -0.4479455 114 114 114
0.29648143 -0.64637786 -0.33234838 84 84 84
0.10134566 -0.64369935 -0.3956776 100 100 100
0.103382364 -0.63645077 -0.6210995 158 158 158
0.18419604 -0.623406 -0.4863582 124 124 124
0.31003153 -0.6375091 -0.5843903 149 149 149
0.16108122 -0.5759422 -0.5042763 128 128 128
0.17303668 -0.5349191 -0.4956582 126 126 126
0.3357118 -0.6269728 -0.6535232 166 166 166
0.34147185 -0.629568 -0.64932275 165 165 165
0.26466125 -0.51913565 -0.5038867 128 128 128
0.3599832 -0.64440066 -0.3725858 95 95 95
0.53445804 -1.25283 -1.023647 261 261 261
0.19742295 -0.547506 -0.4820197 122 122 122
0.06256074 -0.4608401 -0.3939449 100 100 100
0.066601664 -0.42236397 -0.4036729 102 102 102
0.07483375 -0.5163115 -0.37488315 95 95 95
-0.057397425 -0.63586813 -0.45191523 115 115 115
0.29079965 -0.61295694 -0.5554105 141 141 141
0.26373726 -0.5182383 -0.5181979 132 132 132
0.07837738 -0.64062405 -0.36760345 93 93 93
0.056829557 -0.7563857 -0.3897939 99 99 99
0.26142183 -0.5343524 -0.4888465 124 124 124
0.9939498 -1.0145645 -3.2630367 832 832 832
0.9875895 -1.0026872 -3.151381 803 803 803
0.029583082 -0.5466875 -0.39110503 99 99 99
0.060115203 -0.5119553 -0.37936255 96 96 96
-0.057954013 -0.6126031 -0.54835427 139 139 139
-0.11602622 -0.62935895 -0.5769274 147 147 147
-0.11962214 -0.6280585 -0.5786886 147 147 147
-0.11557171 -0.60556734 -0.5741266 146 146 146
0.07105106 -0.51391613 -0.36806747 93 93 93
0.11639749 -0.6423356 -0.39565834 100 100 100
0.17196627 -0.6444782 -0.31563076 80 80 80
0.26682374 -0.6492247 -0.3291522 83 83 83
0.060055062 -0.6445011 -0.3535458 90 90 90
0.167485 -0.5831864 -0.50787234 129 129 129
0.28967237 -0.59928185 -0.5370153 136 136 136
0.27387005 -0.61838365 -0.47986606 122 122 122
-0.08327654 -0.64488775 -0.5504451 140 140 140
-0.07557058 -0.6392869 -0.5700754 145 145 145
-0.07802454 -0.647794 -0.5420706 138 138 138
-0.101073354 -0.637159 -0.58084667 148 148 148
-0.12601057 -0.6078032 -0.5864737 149 149 149
-0.09086162 -0.60959834 -0.56619537 144 144 144
0.22437514 -0.6301836 -0.32512316 82 82 82
0.06303939 -0.40840307 -0.42274883 107 107 107
0.073288634 -0.4109316 -0.4061282 103 103 103
0.20953844 -0.5257448 -0.49091193 125 125 125
0.18738969 -0.6544937 -0.48224947 122 122 122
0.062407985 -0.50218576 -0.37567505 95 95 95
0.17676675 -0.5370429 -0.49441662 126 126 126
0.2633951 -0.61115396 -0.45887658 117 117 117
0.27127954 -0.5919052 -0.4812031 122 122 122
0.069923624 -0.6272941 -0.34733024 88 88 88
0.061386228 -0.5231473 -0.372219 94 94 94
0.089113794 -0.6432439 -0.39225724 100 100 100
0.25988957 -0.5479108 -0.45681635 116 116 116
0.32355914 -0.63736117 -0.34259692 87 87 87
0.20735912 -0.5687116 -0.4730377 120 120 120
0.27009168 -0.6318028 -0.44823828 114 114 114
0.29663837 -0.6466242 -0.3326278 84 84 84
0.101512134 -0.6438671 -0.39593717 100 100 100
0.10358482 -0.6366077 -0.6213238 158 158 158
0.18437655 -0.6235997 -0.48661187 124 124 124
0.31022984 -0.63777286 -0.584708 149 149 149
0.16184795 -0.57599676 -0.5046952 128 128 128
0.17339686 -0.53497654 -0.49605092 126 126 126
0.3360319 -0.6268243 -0.65397525 166 166 166
0.34197748 -0.6296824 -0.64969075 165 165 165
0.26452404 -0.5189714 -0.5043595 128 128 128
0.36059624 -0.6442857 -0.37304774 95 95 95
0.534763 -1.253765 -1.0246989 261 261 261
0.19762106 -0.5477025 -0.48226652 122 122 122
0.06276795 -0.4610103 -0.3942248 100 100 100
0.06681967 -0.42253435 -0.40394983 103 103 103
0.07502766 -0.516479 -0.37514934 95 95 95
-0.057171047 -0.6359311 -0.4520764 115 115 115
0.29098508 -0.6131501 -0.5555906 141 141 141
0.2639474 -0.51845616 -0.51844823 132 132 132
0.07854815 -0.64076567 -0.36783525 93 93 93
0.057306737 -0.75592184 -0.39047912 99 99 99
0.26177278 -0.53442997 -0.48922518 124 124 124
0.99352455 -1.0140412 -3.2632468 832 832 832
0.98590016 -1.0024529 -3.147568 802 802 802
0.030001044 -0.5473 -0.39119098 99 99 99
0.060485497 -0.5117346 -0.37987587 96 96 96
-0.057534516 -0.6125166 -0.5487832 139 139 139
-0.11539024 -0.62923205 -0.5773674 147 147 147
-0.1192798 -0.6276394 -0.57923365 147 147 147
-0.115382046 -0.60544133 -0.5745543 146 146 146
0.071720734 -0.51392007 -0.3685309 93 93 93
0.11747905 -0.64307237 -0.39584097 100 100 100
0.17255518 -0.6444346 -0.31612286 80 80 80
0.2675517 -0.6491663 -0.32961884 84 84 84
0.0599854 -0.6448997 -0.3538058 90 90 90
0.16767593 -0.58339924 -0.50817657 129 129 129
0.28989777 -0.5996598 -0.53759813 137 137 137
0.27404106 -0.618548 -0.4800084 122 122 122
-0.0829564 -0.6448323 -0.55037165 140 140 140
-0.07513383 -0.6390665 -0.5696442 145 145 145
-0.077717006 -0.64775074 -0.54202414 138 138 138
-0.100792855 -0.6371748 -0.58091164 148 148 148
-0.12545452 -0.60752326 -0.58586574 149 149 149
-0.090672255 -0.6097433 -0.5665239 144 144 144
0.22452778 -0.6303012 -0.32524732 82 82 82
0.063248456 -0.40848875 -0.42310795 107 107 107
-0.12009287 -0.4434858 -0.67209077 171 171 171
0.07330546 -0.41133165 -0.4064128 103 103 103
0.08554991 -0.41300562 -0.4164212 106 106 106
0.2096175 -0.52574766 -0.49059096 125 125 125
0.18738769 -0.6547104 -0.48191568 122 122 122
0.062202275 -0.5023733 -0.37576947 95 95 95
0.17690988 -0.5370176 -0.4941531 126 126 126
0.26343066 -0.61118245 -0.4585543 116 116 116
0.2715489 -0.5921711 -0.4813302 122 122 122
0.07123774 -0.62725055 -0.3478668 88 88 88
0.061523363 -0.52307963 -0.37197146 94 94 94
0.08897092 -0.64374244 -0.39221874 100 100 100
0.260024 -0.54792327 -0.45654383 116 116 116
0.32363987 -0.63739526 -0.34230754 87 87 87
0.20748603 -0.5686983 -0.472769 120 120 120
0.27044332 -0.63257384 -0.44815466 114 114 114
0.29661125 -0.6474639 -0.33247694 84 84 84
0.1017963 -0.6439605 -0.39617237 101 101 101
0.10350028 -0.63661367 -0.6215509 158 158 158
0.18423796 -0.6235602 -0.48687395 124 124 124
0.31125608 -0.63851726 -0.5846746 149 149 149
0.16197228 -0.5759826 -0.5044787 128 128 128
0.17354035 -0.53495586 -0.49580315 126 126 126
0.33615 -0.62685525 -0.6536919 166 166 166
0.34208685 -0.62969446 -0.64935684 165 165 165
0.2646762 -0.51898503 -0.5040872 128 128 128
0.36064225 -0.6442394 -0.3726053 95 95 95
0.19784287 -0.5478065 -0.48246285 123 123 123
0.06250885 -0.46095604 -0.3944166 100 100 100
0.0670782 -0.42237303 -0.40422538 103 103 103
0.07531381 -0.5164634 -0.37541154 95 95 95
-0.05712302 -0.63623774 -0.45220444 115 115 115
0.291618 -0.6137304 -0.5557022 141 141 141
0.2641371 -0.5186646 -0.5186249 132 132 132
0.078084186 -0.6407788 -0.3680338 93 93 93
0.057326287 -0.75590503 -0.39032093 99 99 99
0.26191458 -0.53443074 -0.48892376 124 124 124
0.9964776 -1.017005 -3.2753873 835 835 835
0.9870747 -1.003622 -3.1515691 803 803 803
0.030055225 -0.5472317 -0.39090952 99 99 99
0.060625628 -0.5116719 -0.3796403 96 96 96
-0.05750145 -0.61250675 -0.54881346 139 139 139
-0.11535217 -0.6291664 -0.57734203 147 147 147
-0.119170204 -0.6274836 -0.57902026 147 147 147
-0.11518447 -0.60519505 -0.5741303 146 146 146
0.07184625 -0.5138897 -0.3683546 93 93 93
0.17263074 -0.6444422 -0.31590715 80 80 80
0.26762158 -0.64913327 -0.32927486 83 83 83
0.06008227 -0.6447867 -0.35349968 90 90 90
0.15485069 -0.64452523 -0.62009096 158 158 158
0.1681322 -0.5839046 -0.5083357 129 129 129
0.14411116 -0.6428187 -0.6293347 160 160 160
0.29060432 -0.6003251 -0.53793335 137 137 137
0.27449745 -0.61862457 -0.48023632 122 122 122
-0.08258422 -0.6445498 -0.550519 140 140 140
-0.07452883 -0.63909805 -0.569659 145 145 145
-0.07719983 -0.64813715 -0.5420691 138 138 138
-0.10091047 -0.63728774 -0.58118117 148 148 148
-0.12498586 -0.60697925 -0.58599424 149 149 149
-0.09114744 -0.6099125 -0.56693745 144 144 144
0.30834338 -0.60235834 -0.62854564 160 160 160
0.08096504 -0.6315624 -0.33812752 86 86 86
0.22517565 -0.63037395 -0.32542887 82 82 82
0.29372936 -0.648376 -0.34107354 86 86 86
0.06347877 -0.40837413 -0.4226676 107 107 107
-0.120656624 -0.4438411 -0.6740922 171 171 171
0.07355131 -0.4111922 -0.40586838 103 103 103
0.08574402 -0.41294238 -0.41613796 106 106 106
0.21034877 -0.5251095 -0.48929876 124 124 124
0.18751353 -0.6540125 -0.48042703 122 122 122
0.062338993 -0.5016771 -0.37438214 95 95 95
0.17722219 -0.5368183 -0.4930213 125 125 125
0.26389888 -0.6102259 -0.45732367 116 116 116
0.27166942 -0.591469 -0.47993374 122 122 122
0.071361735 -0.62655526 -0.34651226 88 88 88
0.06173937 -0.5233218 -0.37065363 94 94 94
0.26028442 -0.5474006 -0.4555208 116 116 116
0.32341903 -0.6368808 -0.34133792 87 87 87
0.20754552 -0.5682266 -0.4717334 120 120 120
0.27056015 -0.63185894 -0.446746 113 113 113
0.29674226 -0.64683306 -0.33119547 84 84 84
0.10192024 -0.64325714 -0.39480627 100 100 100
0.103622474 -0.63591367 -0.6201967 158 158 158
0.18436044 -0.62285274 -0.48548675 123 123 123
0.31136554 -0.6377831 -0.5832215 148 148 148
0.1613944 -0.5754699 -0.50343066 128 128 128
0.17366661 -0.53466845 -0.49471247 126 126 126
0.3363541 -0.62658596 -0.6526224 166 166 166
0.34207278 -0.6292148 -0.6483196 165 165 165
0.26523545 -0.5186786 -0.5030187 128 128 128
0.19796838 -0.5471315 -0.48112553 122 122 122
0.06264691 -0.46026617 -0.39303106 100 100 100
0.06722158 -0.4216826 -0.40282053 102 102 102
0.07544702 -0.5157701 -0.3740337 95 95 95
-0.05693814 -0.63544625 -0.45069808 114 114 114
0.29171982 -0.6129458 -0.5541326 141 141 141
0.26426184 -0.51796645 -0.51721436 131 131 131
0.05683455 -0.7556064 -0.38925177 99 99 99
0.26206347 -0.533905 -0.48791015 124 124 124
1.0732534 -1.14507 -3.0526836 778 778 778
0.9968602 -1.0180833 -3.2734282 834 834 834
0.98921895 -1.0044813 -3.1547632 804 804 804
0.030193344 -0.5474422 -0.38947058 99 99 99
0.060575843 -0.5112011 -0.37859708 96 96 96
-0.057959735 -0.6120578 -0.54786295 139 139 139
-0.11548528 -0.6280995 -0.5764897 147 147 147
-0.119132936 -0.62699217 -0.5780278 147 147 147
-0.115214825 -0.60461116 -0.5731549 146 146 146
0.07123114 -0.5133889 -0.36725444 93 93 93
1.08498 -1.1798044 -3.255967 830 830 830
0.17170006 -0.64334136 -0.31505984 80 80 80
0.26746655 -0.6486666 -0.3282529 83 83 83
0.05989811 -0.6442412 -0.35248983 89 89 89
0.15496765 -0.64385456 -0.6187955 157 157 157
0.16825359 -0.5832371 -0.50702673 129 129 129
0.14423782 -0.6420824 -0.6278978 160 160 160
0.2907585 -0.5997881 -0.5369006 136 136 136
0.27465644 -0.61816984 -0.47932976 122 122 122
-0.08249897 -0.6439071 -0.5493011 140 140 140
-0.07427746 -0.638211 -0.5679384 144 144 144
-0.07703745 -0.6473801 -0.5406246 137 137 137
-0.100682884 -0.6364497 -0.57956034 147 147 147
-0.12474358 -0.6061477 -0.5843596 149 149 149
-0.09085408 -0.60899806 -0.56512344 144 144 144
0.30850124 -0.6018089 -0.6275205 160 160 160
0.08110455 -0.6308428 -0.33661312 85 85 85
0.2253057 -0.62993085 -0.32443953 82 82 82
0.2939013 -0.6479415 -0.33997095 86 86 86
0.06410414 -0.40761518 -0.421629 107 107 107
-0.12266338 -0.4432876 -0.67467386 172 172 172
0.07424359 -0.41045538 -0.40482014 103 103 103
0.08588837 -0.41257757 -0.41507477 105 105 105
-0.08961564 -0.47602624 -0.6114245 155 155 155
0.21006307 -0.5255964 -0.49108487 125 125 125
0.18769453 -0.6538905 -0.48115093 122 122 122
0.06248042 -0.5027171 -0.37594652 95 95 95
0.17706951 -0.53707165 -0.49414998 126 126 126
0.26363325 -0.6106962 -0.45910662 117 117 117
0.2718597 -0.5918956 -0.48154777 122 122 122
0.070608065 -0.6274201 -0.3478964 88 88 88
0.06158963 -0.5235968 -0.3717867 94 94 94
0.26013303 -0.5476494 -0.45668042 116 116 116
0.32328248 -0.63710046 -0.34247428 87 87 87
0.20739774 -0.56847334 -0.47286642 120 120 120
0.27024966 -0.63326454 -0.44800454 114 114 114
0.29728854 -0.647188 -0.33283973 84 84 84
0.10171098 -0.6438223 -0.39647198 101 101 101
0.18405165 -0.62288165 -0.48731482 124 124 124
0.31077623 -0.6386666 -0.5847302 149 149 149
0.16124362 -0.57576644 -0.5046554 128 128 128
0.17351252 -0.5349324 -0.49586588 126 126 126
0.33620065 -0.6267719 -0.6536685 166 166 166
0.34193137 -0.6294376 -0.64945525 165 165 165
0.26507342 -0.51890063 -0.5041057 128 128 128
0.19798797 -0.54796576 -0.48271686 123 123 123
0.06270982 -0.4616028 -0.39456266 100 100 100
0.06728095 -0.42185852 -0.40464383 103 103 103
0.07544254 -0.5164464 -0.37571752 95 95 95
-0.057296664 -0.63615954 -0.45231748 115 115 115
0.29255718 -0.6141094 -0.55582106 141 141 141
0.26506215 -0.51861215 -0.5189189 132 132 132
0.056750983 -0.75578797 -0.39028138 99 99 99
0.2619114 -0.534168 -0.48910433 124 124 124
1.0726107 -1.1445822 -3.051652 778 778 778
0.99655366 -1.0180224 -3.273673 834 834 834
0.988963 -1.0044734 -3.1552591 804 804 804
0.029912367 -0.54797363 -0.3912602 99 99 99
0.060418203 -0.5114883 -0.3797559 96 96 96
-0.058075607 -0.61233544 -0.5489532 139 139 139
-0.11570859 -0.62853354 -0.57789326 147 147 147
-0.1193642 -0.6274352 -0.5794502 147 147 147
-0.11533621 -0.6049131 -0.5742701 146 146 146
0.07106432 -0.51369405 -0.3684594 93 93 93
1.0827825 -1.177584 -3.2484708 828 828 828
0.17155738 -0.6437105 -0.31637436 80 80 80
