ply
format ascii 1.0
comment author: Greg Turk
comment object: another cube
element vertex 1030
property float x
property float y
property float z
property uchar red
property uchar green
property uchar blue
end_header
0.29398698 -0.584831 0.090967625 232 232 232
0.41850796 -0.5787028 -0.3322177 171 171 171
0.52217007 -0.5795803 -0.37722743 159 159 159
0.6062414 -0.5732324 -0.4174953 149 149 149
0.49819392 -0.5728991 -0.40056193 153 153 153
0.51949126 -0.57085097 -0.36835325 162 162 162
0.5899946 -0.56982374 -0.09858489 230 230 230
0.6248623 -0.5679878 -0.21955745 200 200 200
0.5083277 -0.573694 -0.37801582 159 159 159
0.35205463 -0.5836936 -0.30283904 178 178 178
0.28533113 -0.5724429 -0.16820645 213 213 213
0.30904514 -0.582675 -0.18787137 208 208 208
0.7907838 -0.55500257 -0.20674495 203 203 203
0.24215199 -0.5908822 -0.10668655 228 228 228
0.47201067 -0.57120526 -0.16188636 214 214 214
0.44107893 -0.57976615 0.10122782 230 230 230
0.17048813 -0.58734715 -0.11532192 226 226 226
0.8847115 -0.55349505 -0.18347773 209 209 209
0.42636442 -0.57400703 -0.25846416 190 190 190
0.43054166 -0.5773709 -0.3294508 171 171 171
0.2650682 -0.5829053 -0.1573677 215 215 215
0.16519336 -0.5894598 -0.11105779 227 227 227
0.4620426 -0.565567 0.09477618 231 231 231
0.4482361 -0.5704602 0.041217506 245 245 245
0.32211325 -0.58176184 0.1122798 227 227 227
0.29275128 -0.58418036 0.0661394 239 239 239
0.84971535 -0.5538491 -0.21517764 201 201 201
0.6108779 -0.57489777 -0.15806516 215 215 215
0.4512342 -0.4351819 -0.062032282 240 240 240
0.39971626 -0.51740086 -0.061936796 240 240 240
0.586634 -0.57317996 -0.42840692 146 146 146
0.52538157 -0.5674058 -0.39446074 155 155 155
0.70540214 -0.5674846 -0.38772485 157 157 157
0.28729445 -0.56999874 -0.082724184 234 234 234
0.4267385 -0.58246446 -0.17290668 211 211 211
0.4165338 -0.4855515 -0.059846565 240 240 240
0.5729878 -0.583817 -0.3551223 165 165 165
0.2521546 -0.56790006 -0.24536759 193 193 193
0.5977036 -0.57391226 -0.4311613 146 146 146
0.35056466 -0.58671224 -0.2948132 180 180 180
0.15693843 -0.5907769 -0.18260406 209 209 209
0.8360494 -0.5729946 -0.24200842 194 194 194
0.2481874 -0.5864452 -0.22296059 199 199 199
0.7990619 -0.5578377 -0.2222648 199 199 199
0.7651734 -0.5596881 -0.29942343 179 179 179
0.59758866 -0.56928766 -0.20497656 203 203 203
0.17382182 -0.58945596 -0.19112644 207 207 207
0.8163116 -0.5553076 -0.23312354 196 196 196
0.20265932 -0.58833027 -0.17494157 211 211 211
0.54532266 -0.5689064 0.06727284 238 238 238
0.6091778 -0.5679827 -0.18453613 208 208 208
0.6165614 -0.59085226 -0.26637477 188 188 188
0.8167182 -0.5607282 -0.28303808 183 183 183
0.19199434 -0.58708775 -0.20310064 204 204 204
0.6728773 -0.57966757 -0.39617172 154 154 154
0.7302313 -0.56541383 -0.32568517 172 172 172
0.6397307 -0.5640321 -0.39722806 154 154 154
0.17574167 -0.58621025 -0.19867325 205 205 205
0.20044865 -0.5920185 -0.18622743 208 208 208
0.59539187 -0.5705732 -0.14993477 217 217 217
0.6157441 -0.58498955 -0.34626412 167 167 167
0.33149043 -0.5811434 0.13956052 220 220 220
0.80280936 -0.5592487 -0.30807132 177 177 177
0.6949451 -0.5667479 -0.26808503 187 187 187
0.6264659 -0.657562 -0.41507545 150 150 150
0.5528314 -0.45129657 -0.06968066 238 238 238
0.5510129 -0.45519334 -0.067687646 238 238 238
0.61546504 -0.57185936 -0.062265188 240 240 240
0.50457263 -0.5753237 0.07707029 236 236 236
0.7079207 -0.57319504 -0.020496413 250 250 250
0.5039877 -0.5821881 0.014492944 252 252 252
0.49308035 -0.5854388 0.012693107 252 252 252
0.6695004 -0.54734993 -0.026542082 249 249 249
0.95856583 -0.5655355 -0.06764831 238 238 238
0.9271668 -0.5599555 -0.22401707 198 198 198
0.9727944 -0.56127435 -0.10227321 229 229 229
0.6575264 -0.57161826 0.1361448 221 221 221
0.6521079 -0.57813895 0.13739349 220 220 220
0.73418975 -0.5739813 -0.029653281 248 248 248
0.58364433 -0.57600874 -0.034338474 247 247 247
0.77168334 -0.5729613 0.017569274 251 251 251
0.6528584 -0.5737839 0.14843468 218 218 218
0.6015623 -0.57768685 -0.044637352 244 244 244
0.65248394 -0.5773624 -0.02058208 250 250 250
0.65335804 -0.5771558 -0.022714868 250 250 250
0.6905048 -0.5744899 0.0931556 232 232 232
0.7502512 -0.5724801 -0.01533553 252 252 252
0.65612286 -0.5759192 0.14767745 218 218 218
0.7640085 -0.5743449 0.003890887 255 255 255
0.6158458 -0.5811947 0.21802884 200 200 200
0.51883155 -0.5771513 -0.005741164 254 254 254
0.6077559 -0.56658226 -0.2096561 202 202 202
0.66420597 -0.56110084 0.011223868 253 253 253
0.530097 -0.5758769 0.012973562 252 252 252
0.70642495 -0.57541686 -0.027749255 248 248 248
0.63881266 -0.45479727 -0.094864056 231 231 231
0.30440867 -0.59022415 0.12597091 223 223 223
0.7235433 -0.5726387 -0.028721169 248 248 248
0.6439933 -0.56007427 -0.088521 233 233 233
0.4727977 -0.5691223 0.082124606 235 235 235
0.6521255 -0.5852695 0.24297115 194 194 194
0.6265293 -0.57332474 0.15179679 217 217 217
0.6437948 -0.4678781 0.1670483 213 213 213
0.59784436 -0.577004 0.115794614 226 226 226
0.6405849 -0.2427506 0.13088742 222 222 222
0.6468246 -0.43258488 0.1539556 216 216 216
0.6180296 -0.57589847 0.09063528 232 232 232
0.6059356 -0.5677702 0.12025039 225 225 225
0.56198066 -0.57965183 0.09783366 231 231 231
0.37079087 -0.58709097 0.17096089 212 212 212
0.41762498 -0.5826976 0.0561317 241 241 241
0.375484 -0.5928933 0.174611 211 211 211
0.49109483 -0.46621418 0.11750102 226 226 226
0.46823075 -0.46690148 0.111855164 227 227 227
0.48916936 -0.46235245 0.11249864 227 227 227
0.28060594 -0.58821774 0.13166958 222 222 222
0.42654017 -0.57695204 0.056848273 241 241 241
0.47957593 -0.4627968 0.108807206 228 228 228
0.3893346 -0.5815794 0.13991426 220 220 220
0.43135375 -0.58418745 0.0961401 231 231 231
0.58365834 -0.57649183 0.009184301 253 253 253
0.73268527 -0.5700198 -0.043418527 244 244 244
0.7414229 -0.57123744 -0.01592119 251 251 251
0.72537017 -0.5717258 -0.043324158 244 244 244
0.80663896 -0.5619872 -0.07911396 235 235 235
0.95458627 -0.55546325 -0.17015459 212 212 212
0.76891243 -0.57045454 -0.058426857 241 241 241
0.87536323 -0.56566817 -0.087243974 233 233 233
0.87908137 -0.56478274 -0.111042336 227 227 227
0.55103385 -0.46456409 -0.04229857 245 245 245
0.5410901 -0.46008366 -0.032061905 247 247 247
0.4949564 -0.5742191 0.021165118 250 250 250
0.490189 -0.58853024 0.010726482 253 253 253
0.5186578 -0.57688737 -0.0061177313 254 254 254
0.5696819 -0.5765341 -0.04122223 245 245 245
0.5747651 -0.57248205 -0.031364083 248 248 248
0.542061 -0.5715582 0.009991556 253 253 253
0.42637622 -0.6169709 0.049537793 243 243 243
0.7341254 -0.57226735 -0.01409477 252 252 252
0.65915936 -0.4750206 -0.058422506 241 241 241
0.495169 -0.58148474 0.0076424032 254 254 254
0.607535 -0.58657163 0.21820119 200 200 200
0.3539181 -0.59265643 0.19362238 206 206 206
0.31352508 -0.5891706 0.137513 220 220 220
0.6624024 -0.5757136 0.13037975 222 222 222
0.34547406 -0.58695436 0.17895341 210 210 210
0.58971035 -0.57260746 -0.041677803 245 245 245
0.6576775 -0.41480416 -0.057065785 241 241 241
0.35048246 -0.5934952 0.17776553 210 210 210
0.72777605 -0.57448876 -0.05643411 241 241 241
0.30361542 -0.58809805 0.06274331 240 240 240
0.6550718 -0.49387985 -0.06118335 240 240 240
0.6818001 -0.57591975 -0.03517522 247 247 247
0.49103218 -0.57524425 0.06904209 238 238 238
0.5622871 -0.5834417 0.018084973 251 251 251
0.6565797 -0.5823158 0.22928214 197 197 197
0.40166467 -0.5783271 -0.19947527 205 205 205
0.65989774 -0.40643716 -0.05049105 243 243 243
0.34347883 -0.58651674 0.098604254 230 230 230
0.5491033 -0.57925606 0.25298387 191 191 191
0.8601853 -0.564942 -0.08751261 233 233 233
0.6619966 -0.49763644 -0.052029476 242 242 242
0.32537982 -0.5898017 0.1776728 210 210 210
0.6135204 -0.5767706 0.22590065 198 198 198
0.6426792 -0.2666853 0.09266182 232 232 232
0.6434958 -0.27491206 0.13622518 221 221 221
0.54823244 -0.45458162 -0.06882873 238 238 238
0.5471354 -0.4613468 -0.06838393 238 238 238
0.6108142 -0.57628477 -0.06260541 240 240 240
0.7018125 -0.57802606 -0.021752715 250 250 250
0.6477386 -0.4079411 -0.06026846 240 240 240
0.6012878 -0.57725954 -0.033248723 247 247 247
0.6455636 -0.5812056 0.13710529 221 221 221
0.6664651 -0.5715749 0.115266785 226 226 226
0.7346514 -0.57840025 -0.019331634 251 251 251
0.7286271 -0.57664025 -0.029532671 248 248 248
0.6416706 -0.5702778 0.14728118 218 218 218
0.49117643 -0.4628223 0.14558183 218 218 218
0.6045083 -0.57649314 0.21448135 201 201 201
0.49227673 -0.46062165 0.16200069 214 214 214
0.65981984 -0.57265866 0.010112405 253 253 253
0.6318606 -0.45476392 -0.09403446 232 232 232
0.65027094 -0.57626593 0.09261063 232 232 232
0.49273112 -0.46304625 0.18240707 209 209 209
0.47481602 -0.46600464 0.10791482 228 228 228
0.57776177 -0.5791589 0.009216368 253 253 253
0.72552466 -0.5720359 -0.04307708 245 245 245
0.71713614 -0.573655 -0.043118358 245 245 245
0.7426281 -0.5807042 -0.07590863 236 236 236
0.49081045 -0.5827197 0.021127194 250 250 250
0.7303449 -0.58933306 -0.019014 251 251 251
0.7422694 -0.5787631 -0.06614819 239 239 239
0.45770615 -0.45097497 -0.110532016 227 227 227
0.6509146 -0.40529045 -0.04968068 243 243 243
0.49228847 -0.46340922 0.15566115 216 216 216
0.65302426 -0.4964498 -0.05042839 243 243 243
0.6330315 -0.254889 0.09953903 230 230 230
0.633358 -0.2747116 0.13436706 221 221 221
0.6664653 -0.5749835 0.04461682 244 244 244
0.63057315 -0.23734881 0.10966931 228 228 228
0.45466766 -0.46129423 0.11904368 225 225 225
0.49432743 -0.4610779 0.124804735 224 224 224
0.46042717 -0.46148002 0.13407722 221 221 221
0.7044996 -0.57805145 -0.05644384 241 241 241
0.6563402 -0.33009905 -0.044516236 244 244 244
0.54485595 -0.45580804 -0.07620108 236 236 236
0.5593672 -0.5739628 -0.06004554 240 240 240
0.5955154 -0.5755662 -0.046474397 244 244 244
0.5279118 -0.5407527 -0.04603362 244 244 244
0.6506966 -0.41163167 -0.056624144 241 241 241
0.47699353 -0.46200386 0.10403538 229 229 229
0.63185716 -0.24379821 0.108308196 228 228 228
0.7074095 -0.57438207 -0.03824833 246 246 246
0.650563 -0.57770514 0.24144766 194 194 194
0.6305747 -0.25526747 0.1340729 221 221 221
0.42417133 -0.57786775 -0.24195662 194 194 194
0.6475138 -0.47750956 -0.059587836 240 240 240
0.68229365 -0.5760956 -0.054703414 242 242 242
0.6305597 -0.25329003 0.09956397 230 230 230
0.63629705 -0.3115286 0.1115011 227 227 227
0.6309204 -0.2743754 0.11877197 225 225 225
0.45952865 -0.4638843 0.1222036 224 224 224
0.70424396 -0.5798576 -0.051041275 242 242 242
0.636568 -0.29640862 0.15660508 216 216 216
0.37509072 -0.58515906 -0.03614831 246 246 246
0.56674826 -0.5715667 -0.04523602 244 244 244
0.5587124 -0.57870185 -0.049659044 243 243 243
0.6312969 -0.2724482 0.13434571 221 221 221
0.63943624 -0.32856512 0.09084579 232 232 232
0.6391194 -0.32323322 0.10565022 229 229 229
0.63558114 -0.3083925 0.14435668 219 219 219
0.62688744 -0.25330725 0.19940075 205 205 205
0.63513017 -0.3155885 0.21228594 201 201 201
0.63298786 -0.29512975 0.14318585 219 219 219
0.6341208 -0.30881625 0.13356084 221 221 221
0.63806695 -0.33243644 0.15065597 217 217 217
0.63424706 -0.31409097 0.14141522 219 219 219
0.6330108 -0.3020828 0.14075924 220 220 220
0.62999433 -0.45620728 0.1682172 213 213 213
0.6435373 -0.3801722 0.16190356 214 214 214
0.62970746 -0.29813087 0.25350392 191 191 191
0.6348891 -0.51577723 0.17324989 211 211 211
0.48760813 -0.4598058 0.14106135 220 220 220
0.46113703 -0.46053308 0.14407027 219 219 219
0.49696508 -0.4603976 0.13402353 221 221 221
0.45896992 -0.46323732 0.13967319 220 220 220
0.87214255 -0.56972384 -0.17515928 211 211 211
0.63092756 -0.26349124 0.11989626 225 225 225
0.62377447 -0.19421947 0.14223745 219 219 219
0.63248503 -0.28069043 0.122439116 224 224 224
0.6335554 -0.33587047 0.20108944 204 204 204
0.49098387 -0.5884156 0.004376054 254 254 254
0.6292857 -0.24797356 0.1438986 219 219 219
0.6323861 -0.30984026 0.21481162 201 201 201
0.62906754 -0.24061082 0.12639359 223 223 223
0.6561365 -0.5008741 -0.06277487 239 239 239
0.6500657 -0.4524276 -0.055314362 241 241 241
0.63882613 -0.34558392 0.11728138 226 226 226
0.6333721 -0.29009625 0.13185959 222 222 222
0.5036092 -0.46135515 0.18172112 209 209 209
0.64678633 -0.39831957 0.19719926 205 205 205
0.59466034 -0.5761726 -0.043551713 244 244 244
0.639873 -0.3434145 0.0901698 233 233 233
0.63386804 -0.29544696 0.13216735 222 222 222
0.6313181 -0.276833 0.14172807 219 219 219
0.6417383 -0.3451246 0.10172972 230 230 230
0.6340761 -0.33464047 0.19551983 206 206 206
0.6370436 -0.44229743 0.15405776 216 216 216
0.63367826 -0.29207182 0.13745107 220 220 220
0.5540873 -0.5790694 0.08005567 235 235 235
0.6350264 -0.32131836 0.21172948 202 202 202
0.65205723 -0.37028944 0.07725155 236 236 236
0.5460763 -0.45427728 -0.07648969 236 236 236
0.54545367 -0.4606863 -0.07567471 236 236 236
0.6081945 -0.5776598 -0.06996378 238 238 238
0.6978772 -0.5767386 -0.028105468 248 248 248
0.644077 -0.40760788 -0.066008925 239 239 239
0.7295009 -0.57489836 -0.023870617 249 249 249
0.4881971 -0.46140778 0.13888757 220 220 220
0.4895839 -0.46113035 0.1540051 216 216 216
0.65564597 -0.5716502 0.0024630427 255 255 255
0.64533126 -0.5734989 0.08612934 234 234 234
0.45897472 -0.4597175 0.10528508 229 229 229
0.4710979 -0.46130404 0.1011374 230 230 230
0.57261896 -0.57373244 0.0040869117 254 254 254
0.7211543 -0.57149875 -0.049630076 243 243 243
0.73877347 -0.57776916 -0.07773778 236 236 236
0.48216695 -0.57751083 0.008428156 253 253 253
0.7233025 -0.58273053 -0.023502737 250 250 250
0.73557806 -0.57166165 -0.06931937 238 238 238
0.45525378 -0.44982693 -0.115347594 226 226 226
0.648281 -0.40727216 -0.057662725 241 241 241
0.48789382 -0.45801747 0.14957252 217 217 217
0.6501734 -0.49891523 -0.0577361 241 241 241
0.6191939 -0.23194483 0.11980155 225 225 225
0.4523155 -0.46104524 0.11157915 227 227 227
0.49166268 -0.46099114 0.11732265 226 226 226
0.6510013 -0.3294477 -0.05124253 242 242 242
0.5915669 -0.57481647 -0.051689774 242 242 242
0.523669 -0.53268105 -0.04720944 243 243 243
0.64583284 -0.40991625 -0.062438697 240 240 240
0.7025049 -0.5722966 -0.04388708 244 244 244
0.6254799 -0.25448212 0.12611228 223 223 223
0.6435617 -0.477069 -0.06574097 239 239 239
0.67959964 -0.5784911 -0.06060198 240 240 240
0.6333864 -0.31230226 0.103587836 229 229 229
0.45503247 -0.45803234 0.11661473 226 226 226
0.47599393 -0.4565766 0.121905476 224 224 224
0.4561441 -0.45693794 0.1437143 219 219 219
0.37327576 -0.5746278 -0.035727978 246 246 246
0.55345553 -0.5737248 -0.05225867 242 242 242
0.6234437 -0.25263283 0.19246152 206 206 206
0.6297687 -0.29582343 0.13573292 221 221 221
0.6524534 -0.3369773 -0.0460732 244 244 244
0.6295401 -0.3094779 0.12525246 224 224 224
0.62858737 -0.30213872 0.13291404 222 222 222
0.6261538 -0.45560646 0.16128682 214 214 214
0.6404634 -0.38132307 0.1540179 216 216 216
0.6271905 -0.29869232 0.24599396 193 193 193
0.6301734 -0.51461476 0.16608883 213 213 213
0.48493835 -0.46002072 0.13327354 222 222 222
0.45871496 -0.46087766 0.13628852 221 221 221
0.45676726 -0.4624001 0.13210817 222 222 222
0.4939112 -0.46136972 0.164128 214 214 214
0.6296929 -0.33576477 0.19413918 206 206 206
0.6279992 -0.30864426 0.20733978 203 203 203
0.649634 -0.4963993 -0.06560093 239 239 239
0.6438259 -0.448672 -0.058650732 241 241 241
0.63468516 -0.34523806 0.11040929 227 227 227
0.49985063 -0.45888865 0.1746484 211 211 211
0.6428541 -0.39713812 0.19017974 207 207 207
0.6342828 -0.3423994 0.083750814 234 234 234
0.6383063 -0.3485795 0.09200713 232 232 232
0.634244 -0.35458526 0.09926769 230 230 230
0.62824214 -0.29845646 0.25625026 190 190 190
0.6300467 -0.32031053 0.20451422 203 203 203
0.64394957 -0.36447188 0.07331923 237 237 237
0.63774717 -0.45896044 0.19534549 206 206 206
0.6265091 -0.46014515 0.16652963 213 213 213
0.48547798 -0.4575441 0.17584167 211 211 211
0.45967203 -0.45406514 0.11122677 227 227 227
0.38959718 -0.57385826 -0.058844 240 240 240
0.6375325 -0.38261586 0.22085015 199 199 199
0.6318726 -0.34530708 0.24402113 193 193 193
0.62121034 -0.2599998 0.115440965 226 226 226
0.63232046 -0.34684432 0.13726722 220 220 220
0.61825037 -0.2403734 0.20737192 203 203 203
0.63578737 -0.34787756 0.09142581 232 232 232
0.5403209 -0.4546356 -0.07621378 236 236 236
0.6912867 -0.5752064 -0.026299596 249 249 249
0.636784 -0.4069712 -0.066812456 238 238 238
0.6337999 -0.57506347 0.12875849 223 223 223
0.7221121 -0.5757067 -0.02448973 249 249 249
0.67117774 -0.572665 0.09175372 232 232 232
0.4838466 -0.46430668 0.15270236 217 217 217
0.63976896 -0.5772476 0.08450508 234 234 234
0.48250797 -0.46241078 0.17458236 211 211 211
0.6101857 -0.57623136 0.1424227 219 219 219
0.45299867 -0.4613429 0.1057156 229 229 229
0.7284678 -0.57348883 -0.075830966 236 236 236
0.72588205 -0.5669708 -0.06916505 238 238 238
0.4492763 -0.4516063 -0.11545327 226 226 226
0.64203405 -0.40758258 -0.05798742 241 241 241
0.48225486 -0.46071488 0.14873862 218 218 218
0.64370906 -0.49957338 -0.057863265 241 241 241
0.51649475 -0.53932893 -0.0514642 242 242 242
0.6391394 -0.41061231 -0.06320414 239 239 239
0.6709379 -0.5711848 -0.056120932 241 241 241
0.6295124 -0.564534 0.18126048 209 209 209
0.627394 -0.31256175 0.1032601 229 229 229
0.44952098 -0.46279886 0.114706755 226 226 226
0.4710638 -0.46227342 0.11850542 225 225 225
0.36744165 -0.5794226 -0.037711024 246 246 246
0.5465669 -0.57346237 -0.050449163 243 243 243
0.62229 -0.30322212 0.13149539 222 222 222
0.6273254 -0.31999987 0.07893017 235 235 235
0.62117815 -0.45885846 0.16028175 215 215 215
0.6358846 -0.3843094 0.15189904 217 217 217
0.45419496 -0.46247792 0.13787165 220 220 220
0.45163405 -0.46403924 0.13155186 222 222 222
0.6639709 -0.5605806 0.095689625 231 231 231
0.6384088 -0.45069453 -0.061584502 240 240 240
0.6371193 -0.3633973 0.07468793 236 236 236
0.6347701 -0.46440437 0.19404368 206 206 206
0.62379974 -0.46561903 0.16555554 213 213 213
0.4807199 -0.46584594 0.17113215 212 212 212
0.45630768 -0.4591957 0.11059782 227 227 227
0.5252474 -0.4747963 -0.03855166 246 246 246
0.3818274 -0.57422316 -0.057834417 241 241 241
0.6318499 -0.5691531 0.15674739 216 216 216
0.6327884 -0.38481864 0.21930243 200 200 200
0.59624934 -0.5773593 0.20648487 203 203 203
0.7580304 -0.5714304 0.26970434 187 187 187
0.35707036 -0.5834261 -0.06385693 239 239 239
0.46197817 -0.4534526 -0.11705902 226 226 226
0.5182564 -0.45733464 -0.084920466 234 234 234
0.55566454 -0.57677805 -0.045106173 244 244 244
0.5208776 -0.5713524 -0.39075574 156 156 156
0.39439413 -0.583634 -0.0021984577 255 255 255
0.38490093 -0.581982 -0.015703559 251 251 251
0.61725855 -0.5736807 0.19895858 205 205 205
0.72283536 -0.5692742 0.22744621 198 198 198
0.51986206 -0.5726286 -0.36805907 162 162 162
0.43867716 -0.58439493 0.09149009 232 232 232
0.7035829 -0.5731003 0.29299945 181 181 181
0.6254338 -0.5159381 0.1621039 214 214 214
0.48110133 -0.46113205 0.10461545 229 229 229
0.40541202 -0.58004713 0.019590825 251 251 251
0.6430504 -0.34300274 -0.059758812 240 240 240
0.452415 -0.44879 -0.117821425 225 225 225
0.6697891 -0.5639585 -0.4756979 134 134 134
0.51551116 -0.4670264 -0.08792898 233 233 233
0.5894619 -0.57820106 0.20863949 202 202 202
0.5931808 -0.5625732 -0.42554644 147 147 147
0.74852955 -0.56943345 0.29487306 180 180 180
0.6375688 -0.39107037 0.1116333 227 227 227
0.6334431 -0.39629015 0.16126566 214 214 214
0.4809415 -0.46744692 0.14176708 219 219 219
0.45791054 -0.46348652 0.120162785 225 225 225
0.4294491 -0.4832063 -0.108112246 228 228 228
0.43325883 -0.4597262 -0.09926912 230 230 230
0.62675494 -0.47375536 0.1658662 213 213 213
0.4711337 -0.46277696 0.12885019 223 223 223
0.6676381 -0.57152444 0.21692546 200 200 200
0.64082605 -0.46569377 0.19797002 205 205 205
0.69700867 -0.5727855 0.30302396 178 178 178
0.44855818 -0.46756604 0.10019174 230 230 230
0.61850584 -0.30857348 0.10831854 228 228 228
0.6135253 -0.29923314 0.13542718 221 221 221
0.62152255 -0.31622565 0.08024445 235 235 235
0.6125267 -0.4551982 0.16415775 214 214 214
0.62798613 -0.37730137 0.15933901 215 215 215
0.6199763 -0.3541704 0.10012618 230 230 230
0.6289574 -0.3590136 0.07766521 236 236 236
0.6267057 -0.46122074 0.19816476 205 205 205
0.6158157 -0.46265516 0.16974448 212 212 212
0.6241574 -0.38081956 0.2240598 198 198 198
0.62137187 -0.34610716 0.1369341 221 221 221
0.6346368 -0.33731046 -0.051896125 242 242 242
0.63028336 -0.3865889 0.11505392 226 226 226
0.6268173 -0.39320165 0.16345671 214 214 214
0.6259212 -0.34480828 0.122127086 224 224 224
0.66112113 -0.5668827 0.22211415 199 199 199
0.6298231 -0.36250135 0.074772 236 236 236
0.62597287 -0.3493529 0.13840997 220 220 220
0.7048553 -0.3327302 -0.08486712 234 234 234
0.6184995 -0.47035918 0.16227764 214 214 214
0.62891483 -0.43178445 0.13615772 221 221 221
0.63444465 -0.3927346 0.12708327 223 223 223
0.62346196 -0.3290275 0.13499162 221 221 221
0.6224824 -0.33899856 0.10802588 228 228 228
0.61798877 -0.33645728 0.12592429 223 223 223
0.6172896 -0.3122714 0.13513136 221 221 221
0.6223224 -0.37062863 0.22490355 198 198 198
0.7148717 -0.5477996 0.20590445 203 203 203
0.618386 -0.29699057 0.118486315 225 225 225
0.61740816 -0.29256663 0.13790569 220 220 220
0.62822497 -0.38517776 0.15372533 216 216 216
0.6939763 -0.5842642 0.21513145 201 201 201
0.5556934 -0.5899357 0.33418924 170 170 170
0.58813995 -0.5868633 0.3182803 174 174 174
0.7564498 -0.56754684 0.19896321 205 205 205
0.6234943 -0.35002083 0.102932274 229 229 229
0.6386352 -0.4404904 0.12709382 223 223 223
0.62453276 -0.32724193 0.08540335 234 234 234
0.61201614 -0.27638364 0.11820191 225 225 225
0.6149293 -0.27477586 0.13552454 221 221 221
0.7544823 -0.51285034 -1.1753426 -44 -44 -44
0.7626535 -0.5150779 -1.144874 -36 -36 -36
0.7960435 -0.51461047 -1.1567874 -39 -39 -39
0.80860674 -0.5001816 -1.1900779 -48 -48 -48
0.81030464 -0.51879627 -1.1465865 -37 -37 -37
0.75225055 -0.4168262 -1.1107689 -28 -28 -28
0.79554254 -0.49513328 -1.170069 -43 -43 -43
0.73388696 -0.47700888 -1.15681 -39 -39 -39
0.762174 -0.47674808 -1.1885809 -48 -48 -48
0.6273862 -0.4566261 0.19757345 205 205 205
0.61670625 -0.4580525 0.17287654 211 211 211
0.62583303 -0.38786754 0.16315815 214 214 214
0.6832807 -0.56923604 0.21848285 200 200 200
0.620013 -0.40239313 0.1885785 207 207 207
0.78851444 -0.5619705 0.2084089 202 202 202
0.60707426 -0.32144758 0.20103702 204 204 204
0.48606113 -0.46662614 0.14807644 218 218 218
0.4503668 -0.46233556 0.107997 228 228 228
0.45189205 -0.45693025 0.11541805 226 226 226
0.44121265 -0.45550302 0.14189139 219 219 219
0.45059255 -0.46234295 0.1527051 217 217 217
0.67432916 -0.56018317 -0.048535645 243 243 243
0.5663947 -0.5424191 -0.06925723 238 238 238
0.43317893 -0.4412214 -0.09466246 231 231 231
0.52813125 -0.4819018 -0.043342292 244 244 244
0.42426643 -0.49581453 -0.11712369 226 226 226
0.42046812 -0.5103445 -0.13362399 221 221 221
0.42551872 -0.49300507 -0.11101833 227 227 227
0.54545635 -0.57248557 -0.04232949 245 245 245
0.25526553 -0.59374535 -0.2194713 200 200 200
0.25990203 -0.56684685 -0.15786842 215 215 215
0.61923873 -0.29234484 0.25064695 192 192 192
0.6312369 -0.3437862 0.24887393 192 192 192
0.994272 -0.54522336 0.27388918 186 186 186
0.45913815 -0.45393333 -0.1203759 225 225 225
0.6448202 -0.5429759 -0.064867616 239 239 239
0.44357032 -0.44854727 -0.08895728 233 233 233
0.5798086 -0.55126464 -0.06955665 238 238 238
0.7072318 -0.5541291 -0.06330067 239 239 239
0.47927 -0.58634424 2.9852986E-4 255 255 255
0.37217486 -0.58828115 -0.052037477 242 242 242
0.47643903 -0.5643009 0.065178454 239 239 239
0.5399527 -0.45386538 -0.056948364 241 241 241
0.67991334 -0.56548643 -0.022431254 250 250 250
0.26351264 -0.5887308 -0.2421768 194 194 194
0.7321057 -0.5624949 0.06664649 239 239 239
0.6235185 -0.5581465 -0.09090403 232 232 232
0.7096242 -0.55970955 -0.07248989 237 237 237
0.2779084 -0.5940254 -0.023049086 250 250 250
0.64397085 -0.55951095 -0.030483931 248 248 248
0.33906966 -0.5693172 -0.050857723 243 243 243
0.62289596 -0.3385959 0.24941874 192 192 192
0.6280692 -0.34375373 0.093407035 232 232 232
0.59882456 -0.2720336 0.112277806 227 227 227
0.4370843 -0.45714328 0.19416608 206 206 206
0.61916053 -0.18395445 0.2684393 187 187 187
0.8533451 -0.54538643 0.23293994 196 196 196
0.60824895 -0.33676234 0.1077126 228 228 228
0.67166895 -0.5342339 -0.5018681 128 128 128
0.7405121 -0.54936755 0.0065640807 254 254 254
0.98745155 -0.53860307 0.28012127 184 184 184
0.931203 -0.55609286 0.33072117 171 171 171
1.1692812 -0.48461196 -0.4039431 152 152 152
0.8198804 -0.5299283 -0.120911926 225 225 225
0.86644924 -0.5328802 -0.1831952 209 209 209
0.7883604 -0.5347409 -0.12394306 224 224 224
0.7245851 -0.544238 -0.05210513 242 242 242
0.96217906 -0.5470668 0.42736554 147 147 147
0.6396732 -0.3800248 0.11737871 226 226 226
0.6835721 -0.56277484 0.22456735 198 198 198
0.589343 -0.57945985 0.32668528 172 172 172
0.61676216 -0.39454037 0.19379443 206 206 206
0.6212347 -0.31936157 0.090913504 232 232 232
0.61230236 -0.26660508 0.12240708 224 224 224
0.6223247 -0.252581 0.1368393 221 221 221
0.60942835 -0.22680336 0.10355246 229 229 229
0.617496 -0.32313126 0.1990655 205 205 205
0.47049278 -0.46047527 0.17277762 211 211 211
0.45383048 -0.45933145 0.11324385 227 227 227
0.45417547 -0.4533056 0.11926383 225 225 225
0.6644678 -0.56440467 0.32497084 173 173 173
0.67302996 -0.55238336 -0.04071325 245 245 245
0.6208842 -0.5066426 0.16957712 212 212 212
0.63264245 -0.5626037 0.093765825 232 232 232
0.47136128 -0.51132673 -0.15866894 215 215 215
0.42644233 -0.48970997 -0.10802156 228 228 228
0.4216951 -0.50558656 -0.12625748 223 223 223
0.44071108 -0.5720524 0.09744573 231 231 231
0.42028892 -0.47687954 -0.09377748 232 232 232
0.25377148 -0.5816177 -0.20305967 204 204 204
0.33576185 -0.59120935 0.09959817 230 230 230
0.41888475 -0.5618456 -0.3995906 154 154 154
0.47790515 -0.5584953 -0.35658485 165 165 165
0.4282338 -0.46773165 0.11616242 226 226 226
0.4272772 -0.57581264 0.10417169 229 229 229
0.26206028 -0.56214535 -0.15014589 217 217 217
0.6001308 -0.1804173 0.1932286 206 206 206
0.5922684 -0.17443067 0.14130652 219 219 219
0.6047348 -0.2115339 0.26298678 188 188 188
0.60030496 -0.18503624 0.25955647 189 189 189
0.9922213 -0.5370536 0.2756533 185 185 185
0.60290176 -0.43406808 -0.08490533 234 234 234
0.62172604 -0.39403373 -0.04784456 243 243 243
0.6518832 -0.545886 -0.45499516 139 139 139
0.6845985 -0.5374111 -0.24248368 194 194 194
0.56688225 -0.30591065 -0.11843568 225 225 225
0.61863506 -0.5573814 0.08781615 233 233 233
0.6792977 -0.5609379 0.09220776 232 232 232
0.5800809 -0.5394219 -0.0550479 241 241 241
0.45569336 -0.56312007 0.05684465 241 241 241
0.70235234 -0.54126114 -0.049820274 243 243 243
0.47375208 -0.5720506 0.010898411 253 253 253
0.43680882 -0.4622075 0.17064986 212 212 212
0.5382825 -0.44607258 -0.04979804 243 243 243
0.6754307 -0.55562687 -0.0148359835 252 252 252
0.2615546 -0.5804088 -0.23218 196 196 196
0.46482623 -0.57920426 0.17382699 211 211 211
0.7264321 -0.55156595 0.07134026 237 237 237
0.516985 -0.5714277 0.18717319 208 208 208
0.6685364 -0.5628215 0.10090244 230 230 230
0.5114594 -0.5758582 0.1859276 208 208 208
0.7081173 -0.5510321 -0.06464794 239 239 239
0.4606431 -0.5833015 0.18440749 208 208 208
0.27618742 -0.58204067 -0.011108935 253 253 253
0.6285703 -0.56288296 0.1659492 213 213 213
0.60790116 -0.17171884 0.095166564 231 231 231
0.61707246 -0.32832497 0.2533915 191 191 191
0.6079264 -0.2366637 0.24380167 193 193 193
0.6293278 -0.33891553 0.09842262 230 230 230
0.69021255 -0.548045 -0.25829977 190 190 190
0.6019266 -0.17447102 0.14902773 217 217 217
0.4359774 -0.4477163 0.19867429 205 205 205
0.52470833 -0.44670588 -0.076862395 236 236 236
0.60608137 -0.5795625 0.36498705 162 162 162
0.9275235 -0.541259 0.29176825 181 181 181
0.3579707 -0.5744001 -0.030611128 248 248 248
0.52063066 -0.45354718 -0.033100337 247 247 247
0.62532544 -0.3704747 0.2286302 197 197 197
0.63064206 -0.31265706 -0.043913424 244 244 244
0.61438954 -0.38461876 0.19585273 206 206 206
0.6056523 -0.22489923 0.21500508 201 201 201
0.722347 -0.5565379 0.23685715 195 195 195
1.5798882 -0.46273357 0.14111263 220 220 220
0.22434326 -0.58199894 0.022286445 250 250 250
0.68743086 -0.56285495 0.22532006 198 198 198
0.5528343 -0.57222015 -0.05294305 242 242 242
0.8583999 -0.5397946 0.2375753 195 195 195
0.47125274 -0.56214523 0.20239268 204 204 204
0.6149976 -0.3361357 0.10966563 228 228 228
0.43386078 -0.57066333 0.24668437 193 193 193
0.9966319 -0.5383039 0.28068566 184 184 184
0.83904403 -0.49177557 -0.045259595 244 244 244
0.43211383 -0.5554771 0.08266187 234 234 234
0.74960095 -0.55510724 0.2755909 185 185 185
0.24121054 -0.5908947 0.09407851 232 232 232
0.4266376 -0.578584 0.123260796 224 224 224
0.26806784 -0.5925117 0.13087061 222 222 222
0.33199137 -0.5871197 0.1013377 230 230 230
0.63293195 -0.36993915 0.12002924 225 225 225
0.63283265 -0.3100493 -0.052327543 242 242 242
0.7481689 -0.5427768 -0.11160046 227 227 227
0.9549692 -0.5386211 0.39153737 156 156 156
0.29763955 -0.58937335 0.12236318 224 224 224
0.88589954 -0.55020386 0.44251245 143 143 143
0.3763467 -0.57322466 0.09685078 231 231 231
0.73145574 -0.534975 -0.081793845 235 235 235
0.5851414 -0.1733228 0.14088014 220 220 220
0.5082119 -0.5430216 -0.018081278 251 251 251
0.2915184 -0.5548929 0.12483886 224 224 224
0.61391485 -0.23047781 0.12680313 223 223 223
0.84663516 -0.54467434 -0.13086152 222 222 222
0.89233255 -0.5463725 -0.19434416 206 206 206
0.75138974 -0.56780314 -0.0712862 237 237 237
0.72140956 -0.5361148 0.42580196 147 147 147
0.35826296 -0.56882316 -0.22927153 197 197 197
0.497105 -0.5254703 -0.03401193 247 247 247
0.5610466 -0.57474214 0.28777447 182 182 182
0.70261157 -0.5678682 0.30135322 179 179 179
0.72805315 -0.5134794 0.21737793 200 200 200
0.37214053 -0.56831044 -0.0028614104 255 255 255
0.6380917 -0.16436726 0.08797115 233 233 233
0.58274305 -0.16903841 0.103158414 229 229 229
0.63331836 -0.39313066 0.11800715 225 225 225
0.59552467 -0.18073672 0.2238055 198 198 198
0.60429513 -0.17069852 0.20960718 202 202 202
0.41300887 -0.55553997 -0.39810973 154 154 154
1.0370584 -0.510909 -0.32649404 172 172 172
0.5840106 -0.1934374 0.261436 189 189 189
0.615713 -0.32998997 0.14476809 219 219 219
1.0101293 -0.5391326 0.5140551 124 124 124
0.7466932 -0.55752146 0.071540534 237 237 237
1.0835457 -0.49467403 -0.3512813 166 166 166
0.61283696 -0.29707348 0.21236256 201 201 201
0.6180072 -0.5511904 -0.012242466 252 252 252
0.61590993 -0.31533962 0.15307167 216 216 216
0.6401564 -0.17717826 0.24957488 192 192 192
0.59381396 -0.22825885 0.20685646 203 203 203
0.60266656 -0.20463449 0.1693016 212 212 212
0.61637545 -0.29585636 0.13234681 222 222 222
0.60586685 -0.17818862 0.260978 189 189 189
0.60873824 -0.16929543 0.10187507 230 230 230
0.6075094 -0.17337048 0.15206283 217 217 217
0.31543446 -0.5614801 -0.27139002 186 186 186
0.95717317 -0.52286464 -0.19896585 205 205 205
0.6076496 -0.23369819 0.11976954 225 225 225
0.6490983 -0.5627751 0.045699537 244 244 244
1.3079693 -0.5105764 -0.08248711 234 234 234
1.0039986 -0.5322169 0.3068615 177 177 177
1.5738142 -0.46980143 0.21532416 201 201 201
1.3142861 -0.3578341 -0.073942274 237 237 237
0.43160743 -0.53306514 -0.66466415 86 86 86
0.43447536 -0.53991747 -0.6504195 90 90 90
0.41974092 -0.54232234 -0.62721837 96 96 96
1.4587681 -0.3875311 0.0902468 232 232 232
0.6380819 -0.375261 0.122474134 224 224 224
0.60417175 -0.60080767 0.33181453 171 171 171
0.6186863 -0.39259326 0.20267555 204 204 204
0.6110829 -0.22242749 0.10905486 228 228 228
0.45455652 -0.45883185 0.119045556 225 225 225
0.45473862 -0.45258212 0.12482482 224 224 224
0.67298186 -0.5743153 0.33107275 171 171 171
0.6725494 -0.5504098 -0.035996944 246 246 246
0.62398905 -0.50856173 0.17523211 211 211 211
0.6334775 -0.5626954 0.09907836 230 230 230
0.4359945 -0.4343477 -0.08422604 234 234 234
0.42119092 -0.48534358 -0.102885574 229 229 229
0.41875166 -0.50165284 -0.1216127 224 224 224
0.44019443 -0.5719614 0.10345501 229 229 229
0.41590798 -0.473938 -0.088219315 233 233 233
0.25005394 -0.57764375 -0.19750848 205 205 205
0.33503437 -0.5916202 0.105449915 229 229 229
0.41526854 -0.5579004 -0.39510098 155 155 155
0.4272282 -0.5765693 0.10956296 228 228 228
0.2588005 -0.55870295 -0.14466056 219 219 219
0.6023558 -0.17647481 0.19911063 205 205 205
0.60044104 -0.17462236 0.1432276 219 219 219
0.9990509 -0.5398408 0.2817557 184 184 184
0.6014379 -0.43039465 -0.08098802 235 235 235
0.64454716 -0.54116213 -0.4508278 141 141 141
0.6737897 -0.52851975 -0.2378172 195 195 195
0.5653611 -0.3019101 -0.11532059 226 226 226
0.6173267 -0.5556588 0.091002434 232 232 232
0.6774854 -0.5581591 0.09594917 231 231 231
0.57636255 -0.53629017 -0.053867906 242 242 242
0.7005078 -0.5375978 -0.046137065 244 244 244
0.471816 -0.56969523 0.015806794 251 251 251
0.4383273 -0.46322435 0.17736611 210 210 210
0.5371554 -0.4432218 -0.045175582 244 244 244
0.67506456 -0.55383384 -0.009818703 253 253 253
0.2596585 -0.57815707 -0.22588447 198 198 198
0.465559 -0.58214843 0.17838371 210 210 210
0.71670556 -0.5412575 0.07477084 236 236 236
0.51905346 -0.57447803 0.19243458 206 206 206
0.667911 -0.5604975 0.10529977 229 229 229
0.5128295 -0.5781034 0.19102183 207 207 207
0.70747054 -0.54980385 -0.060406417 240 240 240
0.4617414 -0.5867233 0.18957028 207 207 207
0.6287113 -0.56102824 0.17080855 212 212 212
0.6196155 -0.17545003 0.09666929 231 231 231
0.6222149 -0.32806098 0.26120442 189 189 189
0.6298098 -0.33603728 0.104456455 229 229 229
0.57139575 -0.31499898 -0.110917896 227 227 227
0.6804279 -0.537554 -0.25434884 191 191 191
0.6144724 -0.17832375 0.15057108 217 217 217
0.43772334 -0.44997227 0.2047796 203 203 203
0.5745821 -0.5581577 -0.40909585 151 151 151
0.5242111 -0.44325995 -0.07290354 237 237 237
0.9339182 -0.5459508 0.29729384 180 180 180
0.3560516 -0.5731051 -0.02614221 249 249 249
0.52022684 -0.45154482 -0.028942376 248 248 248
0.6321068 -0.3103301 -0.040513664 245 245 245
0.6187675 -0.38827753 0.20222807 204 204 204
0.60840386 -0.22289973 0.22081363 199 199 199
1.6113851 -0.47633255 0.1408683 220 220 220
0.4804284 -0.44416964 0.18604276 208 208 208
0.5513118 -0.5711024 -0.048980743 243 243 243
0.84750986 -0.5336609 0.24157894 194 194 194
0.47069138 -0.5666959 0.20777622 203 203 203
0.6185331 -0.33482748 0.114366174 226 226 226
1.0058286 -0.5452572 0.2846827 183 183 183
0.81800425 -0.47208405 -0.044937283 244 244 244
0.756619 -0.5605154 0.28157175 184 184 184
0.2429358 -0.60007095 0.09613904 231 231 231
0.42918593 -0.58594644 0.12774497 223 223 223
0.23833042 -0.61757433 0.15522417 216 216 216
0.33289367 -0.5905973 0.105997026 228 228 228
0.6401896 -0.31197792 -0.053608328 242 242 242
0.74431926 -0.5323945 -0.10885498 228 228 228
0.29865476 -0.59305906 0.12654316 223 223 223
0.9077933 -0.56881595 0.45101008 140 140 140
0.4190194 -0.5815799 0.31896865 174 174 174
0.46552068 -0.59022963 0.38208795 158 158 158
0.732212 -0.5350164 -0.07548508 236 236 236
0.5962125 -0.17791635 0.14082071 220 220 220
0.50675917 -0.5423058 -0.012547642 252 252 252
0.7297118 -0.53417146 -0.30733666 177 177 177
0.8475511 -0.5430033 -0.12749979 223 223 223
0.88052386 -0.5355518 -0.18853071 207 207 207
0.75424975 -0.56911016 -0.064505845 239 239 239
0.6645623 -0.55092764 0.11487967 226 226 226
0.4961477 -0.52347064 -0.030032009 248 248 248
0.7127128 -0.579311 0.30622602 177 177 177
0.37369817 -0.5736543 3.014803E-4 255 255 255
0.64250576 -0.16293108 0.091239214 232 232 232
0.6005916 -0.179434 0.22798377 197 197 197
0.40832523 -0.55124867 -0.3945841 155 155 155
1.0294721 -0.50474894 -0.32093516 174 174 174
0.63352895 -0.1914978 0.2593873 189 189 189
0.61865747 -0.32830065 0.14837158 218 218 218
1.0409606 -0.56303144 0.52453256 122 122 122
1.0793686 -0.4913299 -0.34786996 167 167 167
0.61848867 -0.29752195 0.21630192 200 200 200
0.5457581 -0.6006626 0.384828 157 157 157
0.6229778 -0.29743457 0.20236892 204 204 204
0.6451803 -0.17673457 0.2535172 191 191 191
0.6017573 -0.23096877 0.21259502 201 201 201
0.7422894 -0.44005162 -0.004278034 254 254 254
0.3694056 -0.6203587 0.2566906 190 190 190
0.6062803 -0.20286435 0.17379361 211 211 211
0.6229536 -0.297899 0.13566509 221 221 221
0.4318601 -0.55858886 0.110268 227 227 227
0.61734915 -0.18207318 0.26496643 188 188 188
0.62641424 -0.17771405 0.10240799 229 229 229
1.5346609 -0.4996997 0.019780904 250 250 250
0.4424653 -0.44912994 -0.10511711 229 229 229
0.31329957 -0.56082165 -0.26779357 187 187 187
0.9679027 -0.52952707 -0.20081523 204 204 204
0.6947643 -0.5226178 -0.07445696 237 237 237
0.64628834 -0.55813396 0.051295936 242 242 242
1.3101536 -0.50969374 -0.08145729 235 235 235
0.6519928 -0.5469874 -0.03764227 246 246 246
1.4125916 -0.397628 -0.071728736 237 237 237
0.6383638 -0.3772118 0.16408795 214 214 214
0.7629943 -0.44030327 -0.011045307 253 253 253
0.45090145 -0.42196006 -0.09990272 230 230 230
0.4270882 -0.5348182 -0.6695899 85 85 85
0.4151308 -0.5427387 -0.6311724 95 95 95
0.48852712 -0.43452716 -0.11754903 226 226 226
0.44905925 -0.5339327 -0.27623126 185 185 185
0.40906954 -0.5343449 -0.60082126 102 102 102
1.4884899 -0.4005549 0.08794692 233 233 233
0.38611153 -0.53949714 -0.58791244 106 106 106
0.59888536 -0.2206111 0.13264275 222 222 222
0.612684 -0.17062938 0.12648147 223 223 223
1.0535945 -0.57473683 0.4569076 139 139 139
0.9313747 -0.48760277 -0.2529039 191 191 191
0.7632587 -0.48459494 -0.10105422 230 230 230
1.3914435 -0.53405225 0.30255383 178 178 178
0.58706003 -0.5330583 -0.21812674 200 200 200
0.7437985 -0.46639723 0.005360782 254 254 254
0.62091655 -0.2739002 0.20281813 204 204 204
0.6188017 -0.20966315 0.10296002 229 229 229
1.6941873 -0.5327352 0.14689437 218 218 218
0.6388141 -0.37007564 0.12480214 224 224 224
0.61788 -0.3886537 0.20400289 203 203 203
0.45353445 -0.45449436 0.123132825 224 224 224
0.67161125 -0.54706043 -0.033899635 247 247 247
0.63203305 -0.5593974 0.10174638 230 230 230
0.42038593 -0.5002795 -0.12042585 225 225 225
0.44013873 -0.56883365 0.1070447 228 228 228
0.3324736 -0.5861346 0.10896894 228 228 228
0.42483518 -0.5726649 0.11258817 227 227 227
0.2586203 -0.55626744 -0.14282396 219 219 219
0.60162556 -0.1724658 0.20163047 204 204 204
0.59961414 -0.17064583 0.14672902 218 218 218
0.6751448 -0.5228035 -0.23586783 195 195 195
0.6171704 -0.5520573 0.09649745 231 231 231
0.700065 -0.53387636 -0.04278496 245 245 245
0.47037563 -0.5667017 0.018443078 251 251 251
0.53855294 -0.4408682 -0.04449907 244 244 244
0.6741084 -0.5507869 -0.008193582 253 253 253
0.46264252 -0.5769456 0.1817519 209 209 209
0.7173039 -0.5355086 0.078586966 235 235 235
0.66734856 -0.5568461 0.108565 228 228 228
0.5102206 -0.5734654 0.19435227 206 206 206
0.70710814 -0.5469901 -0.05887595 240 240 240
0.45858064 -0.58146876 0.19253579 206 206 206
0.62868 -0.55734915 0.173587 211 211 211
0.62042344 -0.17295551 0.09870547 230 230 230
0.62162554 -0.3241065 0.26314032 188 188 188
0.6295653 -0.3314494 0.105012655 229 229 229
0.5743612 -0.31615514 -0.112755746 227 227 227
0.6781664 -0.5310529 -0.24859193 192 192 192
0.61460835 -0.17490464 0.15354365 216 216 216
0.43626878 -0.44581395 0.20729077 203 203 203
0.57629895 -0.5571731 -0.4078208 152 152 152
0.93410176 -0.5423154 0.2991169 179 179 179
0.5195086 -0.44844913 -0.027148634 249 249 249
0.634505 -0.3071304 -0.038859993 246 246 246
0.6172135 -0.3849089 0.20586863 203 203 203
0.6098776 -0.21848708 0.22396746 198 198 198
0.7303724 -0.5605728 0.24858768 192 192 192
1.6145972 -0.47222596 0.13842845 220 220 220
0.5504482 -0.56572455 -0.046215028 244 244 244
0.84574044 -0.5273743 0.24481982 193 193 193
0.6178721 -0.33163726 0.11692864 226 226 226
1.0051937 -0.5390647 0.2872492 182 182 182
0.8177046 -0.46476078 -0.03996405 245 245 245
0.42918667 -0.55142385 0.08924508 233 233 233
0.23944375 -0.592591 0.1015442 230 230 230
0.42748567 -0.58360344 0.13041455 222 222 222
0.2671319 -0.594539 0.1399264 220 220 220
0.32935038 -0.5856237 0.1098997 227 227 227
0.2946853 -0.5861866 0.13142335 222 222 222
0.729515 -0.53086585 -0.3056771 178 178 178
0.2890083 -0.5498306 0.13644263 221 221 221
0.8468599 -0.5401576 -0.125909 223 223 223
0.87610394 -0.5278078 -0.18301097 209 209 209
0.75377285 -0.5672781 -0.06434849 239 239 239
0.66529655 -0.5496711 0.115746945 226 226 226
0.4963903 -0.52106446 -0.029720992 248 248 248
0.70873296 -0.574882 0.30966747 177 177 177
0.37027374 -0.56741196 0.003048867 255 255 255
0.64547104 -0.15926921 0.09271175 232 232 232
0.601112 -0.17592001 0.23064035 197 197 197
1.0320725 -0.5035401 -0.32228038 173 173 173
0.6367262 -0.19029891 0.2600814 189 189 189
0.61977303 -0.32472605 0.15044934 217 217 217
1.0402024 -0.560226 0.5278927 121 121 121
0.61953795 -0.29445416 0.21946713 200 200 200
0.61812544 -0.43027586 -0.15933517 215 215 215
0.6457869 -0.17330766 0.2565205 190 190 190
0.6025729 -0.22698265 0.21555853 201 201 201
0.60676616 -0.2001983 0.17668042 210 210 210
1.0479128 -0.5552228 0.44799894 141 141 141
0.98301 -0.5539593 0.5563074 114 114 114
0.43441573 -0.5620939 0.10888651 228 228 228
0.6173599 -0.17891455 0.26677722 187 187 187
0.62558085 -0.17333919 0.10688934 228 228 228
0.44335702 -0.44845432 -0.105323106 229 229 229
0.31597662 -0.56629795 -0.27215335 186 186 186
0.9699076 -0.52940863 -0.20040014 204 204 204
0.33279797 -0.57473296 0.18824583 207 207 207
1.0457177 -0.55031604 0.43299627 145 145 145
1.3066304 -0.50358707 -0.076078445 236 236 236
0.6574764 -0.55255026 -0.040341526 245 245 245
1.403758 -0.39095312 -0.06632462 239 239 239
0.7638117 -0.43565196 -0.008914083 253 253 253
0.52511597 -0.46500176 -0.10409102 229 229 229
0.4452556 -0.49525112 -0.12509713 224 224 224
0.4620776 -0.43449688 -0.10807374 228 228 228
1.4850032 -0.39566344 0.091178805 232 232 232
0.6031729 -0.2201153 0.13358852 221 221 221
1.0530463 -0.5731724 0.45928073 138 138 138
0.94265646 -0.49202436 -0.25931892 189 189 189
0.76359767 -0.4817682 -0.09861544 230 230 230
1.3906542 -0.5316567 0.30454355 178 178 178
0.5987315 -0.5448287 -0.22784021 197 197 197
0.75098807 -0.46829426 0.003820151 255 255 255
0.6086253 -0.320372 -0.074977726 236 236 236
0.61763585 -0.20689118 0.10550961 229 229 229
1.6854287 -0.5261368 0.14881116 218 218 218
1.2939333 -0.36571777 -0.17597821 211 211 211
1.4514297 -0.52891403 0.2828306 183 183 183
1.4791309 -0.51388806 0.23160505 196 196 196
0.63700074 -0.36718252 0.12642628 223 223 223
0.61613566 -0.383697 0.20433375 203 203 203
0.6704676 -0.54455185 -0.03464812 247 247 247
0.6277827 -0.5479691 0.1069777 228 228 228
0.43508786 -0.4307516 -0.083823234 234 234 234
0.4381327 -0.5620034 0.10859209 228 228 228
0.3317831 -0.5763624 0.112890154 227 227 227
0.4226934 -0.559796 0.117458194 226 226 226
0.59989077 -0.16843554 0.20278114 204 204 204
0.9874983 -0.523474 0.28645128 182 182 182
0.61541694 -0.5444075 0.100589514 230 230 230
0.7001445 -0.53529406 -0.046660542 244 244 244
0.6707575 -0.5448955 -0.0065346956 254 254 254
0.45782506 -0.5600852 0.18956247 207 207 207
0.71394485 -0.5298251 0.08623603 234 234 234
0.6627968 -0.5473044 0.11369336 227 227 227
0.5052348 -0.55775213 0.19999374 205 205 205
0.7063701 -0.5454749 -0.05953294 240 240 240
0.6238389 -0.54687977 0.17869389 210 210 210
0.61582106 -0.16521415 0.09991315 230 230 230
0.62141263 -0.3213825 0.26272643 189 189 189
0.6279623 -0.32624236 0.10855755 228 228 228
0.6796627 -0.5297284 -0.24187633 194 194 194
0.61220837 -0.16930118 0.15417737 216 216 216
0.4346074 -0.43997356 0.20908374 202 202 202
0.5936446 -0.5482341 0.3818967 158 158 158
0.9255283 -0.52947843 0.3020254 178 178 178
0.51870674 -0.4469132 -0.027352512 249 249 249
0.6374391 -0.31256577 -0.042525858 245 245 245
0.6119686 -0.37125948 0.20674887 203 203 203
0.6081618 -0.2156628 0.22404091 198 198 198
0.72575915 -0.55046344 0.24853206 192 192 192
1.6625316 -0.4972112 0.1268568 223 223 223
0.5472908 -0.5586784 -0.043195575 244 244 244
0.8297772 -0.50406647 0.2527517 191 191 191
0.61542815 -0.32612178 0.11895937 225 225 225
0.9946687 -0.52795553 0.29002023 182 182 182
0.4294611 -0.5462121 0.0934377 232 232 232
0.42495015 -0.5684428 0.1360398 221 221 221
0.26514587 -0.5762738 0.14550918 218 218 218
0.32741275 -0.56696033 0.11725485 226 226 226
0.41026592 -0.55415237 0.32737824 172 172 172
0.8407031 -0.5319327 -0.1226494 224 224 224
0.49684817 -0.52231336 -0.027034104 249 249 249
0.69274426 -0.54397845 0.31537098 175 175 175
0.65082604 -0.16513106 0.08754611 233 233 233
0.59939843 -0.17216167 0.2318457 196 196 196
1.0573028 -0.5300108 -0.3435693 168 168 168
0.631451 -0.18137494 0.26481295 188 188 188
0.6199545 -0.32460037 0.15245518 217 217 217
0.6155771 -0.2873992 0.22261247 199 199 199
0.64099705 -0.16587988 0.25878775 190 190 190
0.60121316 -0.2236276 0.21396676 201 201 201
0.61216325 -0.16950229 0.27033192 187 187 187
0.62324417 -0.16839698 0.10244042 229 229 229
0.4387036 -0.43644258 -0.101144046 230 230 230
0.95993257 -0.51917267 -0.19475445 206 206 206
1.2965685 -0.49572882 -0.07283804 237 237 237
1.3976911 -0.38597938 -0.06437343 239 239 239
0.60056955 -0.21375981 0.13692677 221 221 221
1.3757309 -0.51580954 0.3077724 177 177 177
1.6415987 -0.4970859 0.1570749 215 215 215
1.2532365 -0.48425332 -0.011339039 253 253 253
1.350625 -0.4632366 0.29614624 180 180 180
1.1826638 -0.48573866 0.13373375 221 221 221
1.3678731 -0.50771713 0.35705483 164 164 164
1.3258711 -0.48965672 0.42630583 147 147 147
1.342829 -0.48212793 0.42488888 147 147 147
1.4453075 -0.47404823 0.23098436 197 197 197
1.4224459 -0.48006 0.32455903 173 173 173
1.6457787 -0.25592968 0.41859847 149 149 149
0.63821095 -0.36641416 0.12347901 224 224 224
0.61861527 -0.38019028 0.19785519 205 205 205
0.67348325 -0.5437007 -0.040688336 245 245 245
0.6302617 -0.54574084 0.103825405 229 229 229
0.4351792 -0.55196476 0.10926764 228 228 228
0.33078203 -0.5715046 0.11163369 227 227 227
0.42121416 -0.5526018 0.11649248 226 226 226
0.60387564 -0.16438973 0.19960897 205 205 205
0.98980445 -0.51888955 0.28063506 184 184 184
0.61607057 -0.5391321 0.100389436 230 230 230
0.7041162 -0.5367975 -0.053569496 242 242 242
0.45319107 -0.545432 0.19345747 206 206 206
0.7001858 -0.5035279 0.100270346 230 230 230
0.6609316 -0.5409659 0.1134505 227 227 227
0.50163 -0.54677546 0.19875796 205 205 205
0.7069125 -0.5406896 -0.062239826 240 240 240
0.622048 -0.31727573 0.25984305 189 189 189
0.6352105 -0.3312451 0.100218 230 230 230
0.61429983 -0.1666868 0.149791 217 217 217
0.4370284 -0.43775764 0.20563829 203 203 203
0.59408915 -0.5450132 0.37678185 159 159 159
0.9220702 -0.5215069 0.29643562 180 180 180
0.6108812 -0.2122027 0.21973898 199 199 199
0.5444306 -0.5515083 -0.041807026 245 245 245
0.6214702 -0.32998613 0.111386 227 227 227
0.99745566 -0.5237161 0.28521794 183 183 183
0.43331194 -0.5512799 0.08745974 233 233 233
0.4243257 -0.56139374 0.1341426 221 221 221
0.417397 -0.56204057 0.3233083 173 173 173
0.4610645 -0.5643735 0.38685364 157 157 157
0.61971813 -0.31961396 0.15106733 217 217 217
0.6124523 -0.2781958 0.22115524 199 199 199
0.60587317 -0.21948689 0.20702574 203 203 203
1.628781 -0.48538682 0.1510746 217 217 217
0.6480824 -0.15798542 0.27042395 187 187 187
1.3626733 -0.5063721 0.4195212 149 149 149
1.0582955 -0.5243113 0.7851719 55 55 55
