ply
format ascii 1.0
comment author: vikas
comment object: test
element vertex 988
property float x
property float y
property float z
property uchar red
property uchar green
property uchar blue
end_header
-0.086209446 -0.65634674 -0.16837367 136 136 136
-0.07409868 -0.47806078 -0.19551103 139 139 139
-0.07202937 -0.49048442 -0.19332038 139 139 139
0.003696531 -0.5004424 -0.20406352 140 140 140
-0.050828174 -0.45813316 -0.22663553 142 142 142
0.017534792 -0.45989162 -0.21308024 141 141 141
-0.04035385 -0.48127007 -0.19976158 139 139 139
-0.06244248 -0.48528653 -0.19431138 139 139 139
-0.07824707 -0.61744785 -0.1735378 137 137 137
-0.08247149 -0.6506272 -0.16135627 136 136 136
0.017306566 -0.5184604 -0.20024647 140 140 140
-0.0035873204 -0.53059554 -0.1957076 139 139 139
0.04999453 -0.5166041 -0.20699354 140 140 140
0.017862558 -0.4563924 -0.21304502 141 141 141
0.089259684 -0.4604162 -0.268266 146 146 146
0.043724656 -0.49231982 -0.20935072 140 140 140
0.007952362 -0.51812774 -0.20104007 140 140 140
0.05774948 -0.4966938 -0.20645262 140 140 140
-0.106341854 -0.6541171 -0.11825425 131 131 131
-0.08811492 -0.65745187 -0.117581345 131 131 131
-0.09536652 -0.6565925 -0.11648787 131 131 131
0.074335694 -0.64529866 -0.18831146 138 138 138
-0.10396913 -0.45601404 -0.21695183 141 141 141
-0.09061195 -0.61443067 -0.17131774 137 137 137
-0.23133056 -0.4843007 -0.26757306 146 146 146
-0.19976786 -0.4878393 -0.28023788 148 148 148
-0.09720327 -0.65756255 -0.16877225 136 136 136
-0.24579771 -0.48252702 -0.25669795 145 145 145
9.5933676E-5 -0.6475784 -0.17733891 137 137 137
0.046901792 -0.62542194 -0.18731351 138 138 138
0.016602099 -0.58744645 -0.1902364 139 139 139
-0.081233755 -0.46901152 -0.19484058 139 139 139
0.052973747 -0.48978794 -0.21139905 141 141 141
-0.050745547 -0.6523309 -0.17208679 137 137 137
0.0056205094 -0.49151915 -0.20420662 140 140 140
-0.063923284 -0.49714082 -0.19352333 139 139 139
-0.05803536 -0.51814634 -0.19145316 139 139 139
-0.22358906 -0.4823951 -0.2859523 148 148 148
-0.10142298 -0.51942986 -0.18773575 138 138 138
-0.009603709 -0.5116821 -0.19893149 139 139 139
-0.06671934 -0.5092882 -0.19001162 139 139 139
0.01453203 -0.4565335 -0.24269548 144 144 144
-0.19874276 -0.5470197 -0.41303194 161 161 161
-0.017449051 -0.52847975 -0.1929481 139 139 139
-0.047828525 -0.64405996 -0.17158233 137 137 137
-0.040907383 -0.52771974 -0.1915007 139 139 139
0.11472714 -0.6517476 -0.19763497 139 139 139
-0.22813661 -0.48307312 -0.25705284 145 145 145
-0.227546 -0.48687032 -0.27260536 147 147 147
0.024338871 -0.4881406 -0.20706593 140 140 140
0.056471497 -0.5968422 -0.19422834 139 139 139
-0.1997804 -0.48589402 -0.2816381 148 148 148
0.15051469 -0.50618684 -0.29283378 149 149 149
-0.23484892 -0.51687914 -0.42074668 162 162 162
-0.046705827 -0.5338459 -0.18653448 138 138 138
-0.10311356 -0.65406203 -0.11934393 131 131 131
-0.011570483 -0.526446 -0.19690184 139 139 139
0.045565695 -0.58911747 -0.1950677 139 139 139
-0.074197546 -0.65756094 -0.17054063 137 137 137
-0.036876276 -0.59090203 -0.18326655 138 138 138
0.009473711 -0.5077027 -0.20112777 140 140 140
0.027647078 -0.5051778 -0.20491396 140 140 140
-0.05488287 -0.51132864 -0.1941753 139 139 139
-0.21932256 -0.4857936 -0.28312293 148 148 148
0.017172664 -0.59104466 -0.19372194 139 139 139
-0.023198515 -0.5982206 -0.18342726 138 138 138
-0.023700953 -0.5259155 -0.19427608 139 139 139
-0.093765244 -0.6620375 -0.17537177 137 137 137
0.05765459 -0.50907624 -0.2083599 140 140 140
0.09953621 -0.6096024 -0.20094389 140 140 140
0.019625992 -0.52076733 -0.3960989 159 159 159
-0.24338207 -0.4826256 -0.24005282 144 144 144
0.048693 -0.6420354 -0.18826161 138 138 138
0.10303956 -0.6150234 -0.20106944 140 140 140
-0.052259654 -0.5035263 -0.19402014 139 139 139
0.03854096 -0.49762884 -0.3932745 159 159 159
0.022462457 -0.49051103 -0.40644798 160 160 160
-0.023945361 -0.52797616 -0.40974846 160 160 160
-0.03306219 -0.44918293 -0.4247738 162 162 162
-0.1017005 -0.5462815 -0.18550117 138 138 138
-0.20337644 -0.48951718 -0.24283522 144 144 144
-0.045875266 -0.6431234 -0.17285125 137 137 137
0.029874831 -0.51228124 -0.39770734 159 159 159
-0.048569232 -0.5247138 -0.41766623 161 161 161
-0.07805073 -0.59725237 -0.17678577 137 137 137
0.023028374 -0.49603105 -0.20703787 140 140 140
-7.0011616E-4 -0.50248283 -0.20075221 140 140 140
-0.03927879 -0.45764318 -0.2299689 142 142 142
-0.20413785 -0.48769948 -0.27242708 147 147 147
-0.20327428 -0.5417676 -0.40923297 160 160 160
-0.0770835 -0.57043463 -0.18703145 138 138 138
0.051290482 -0.4986952 -0.20923935 140 140 140
-0.08665842 -0.6199651 -0.17306659 137 137 137
-0.08657935 -0.65584064 -0.16840298 136 136 136
-0.016318202 -0.55538166 -0.41257936 161 161 161
-0.074579954 -0.4790255 -0.1956209 139 139 139
-0.07171404 -0.4885971 -0.19509745 139 139 139
0.003291607 -0.49957588 -0.20367809 140 140 140
0.01615864 -0.45761654 -0.2116489 141 141 141
-0.04041691 -0.48109022 -0.19983146 139 139 139
-0.07884066 -0.61602473 -0.17276756 137 137 137
-0.23564488 -0.64625794 -0.2096516 140 140 140
-0.21139303 -0.6465629 -0.21316944 141 141 141
-0.08205749 -0.652884 -0.16209559 136 136 136
-0.22188038 -0.62838393 -0.20995083 140 140 140
0.017064601 -0.51799434 -0.20019254 140 140 140
-0.0037798285 -0.5301375 -0.19602513 139 139 139
-0.06151855 -0.5328112 -0.18925075 138 138 138
-0.061378732 -0.52921647 -0.18904369 138 138 138
0.049463034 -0.5147694 -0.20636618 140 140 140
-0.10604124 -0.6608055 -0.17877287 137 137 137
0.08858043 -0.45925605 -0.26778245 146 146 146
0.04341203 -0.4926819 -0.20917629 140 140 140
0.007908285 -0.51873755 -0.20177239 140 140 140
0.053212285 -0.46904704 -0.400224 160 160 160
0.14234322 -0.43332717 -0.3466614 154 154 154
0.05786982 -0.49731684 -0.20725884 140 140 140
-0.016886294 -0.5995318 -0.1875274 138 138 138
-0.090047985 -0.64130205 -0.16966128 136 136 136
0.0013988316 -0.5185426 -0.19929953 139 139 139
-0.04082112 -0.45823854 -0.23369569 143 143 143
0.23893517 -0.66588736 -0.21867837 141 141 141
-0.10730201 -0.6542557 -0.11698824 131 131 131
-0.08900607 -0.65569353 -0.1161731 131 131 131
-0.09623018 -0.6548773 -0.11509411 131 131 131
-0.10460593 -0.45534515 -0.21598893 141 141 141
-0.091218114 -0.61378676 -0.1702538 137 137 137
-0.23226902 -0.48424697 -0.266813 146 146 146
-0.20067708 -0.4878174 -0.27977654 147 147 147
-0.10234088 -0.53858554 -0.1841414 138 138 138
-0.097690776 -0.65710086 -0.167734 136 136 136
-0.24627568 -0.48257548 -0.25662914 145 145 145
-4.2667985E-4 -0.646991 -0.17626432 137 137 137
0.04637751 -0.62483335 -0.18625504 138 138 138
-0.081918895 -0.46817297 -0.19372655 139 139 139
0.052430302 -0.48920733 -0.2104408 141 141 141
-0.05139503 -0.65142906 -0.17088549 137 137 137
0.0050233305 -0.4908607 -0.20323461 140 140 140
0.073390335 -0.55109686 -0.20271249 140 140 140
-0.064179406 -0.49712038 -0.19288602 139 139 139
-0.058364928 -0.5166851 -0.18981592 138 138 138
-0.2246359 -0.48264086 -0.28563535 148 148 148
-0.10136451 -0.5203509 -0.18756895 138 138 138
-0.010019183 -0.5104339 -0.19774668 139 139 139
-0.06791359 -0.50964385 -0.18856572 138 138 138
0.013751149 -0.45638502 -0.2419569 144 144 144
-0.20017739 -0.547576 -0.4108061 161 161 161
-0.01810038 -0.52777797 -0.19178315 139 139 139
-0.0485937 -0.6428843 -0.17027874 137 137 137
0.11430377 -0.65129596 -0.19661781 139 139 139
-0.22866048 -0.4828415 -0.25630814 145 145 145
-0.22809745 -0.4864056 -0.2716687 147 147 147
0.0240542 -0.48790187 -0.20632619 140 140 140
0.05580893 -0.5960297 -0.19275482 139 139 139
-0.2007038 -0.48572636 -0.28027382 148 148 148
-0.04754448 -0.5327641 -0.18531907 138 138 138
-0.103783295 -0.6529537 -0.11812025 131 131 131
-0.01199913 -0.5263589 -0.1961933 139 139 139
0.04512444 -0.58867127 -0.19410478 139 139 139
-0.07452126 -0.6550213 -0.16845374 136 136 136
-0.038468957 -0.5922693 -0.1822961 138 138 138
-0.20269476 -0.53748626 -0.22537665 142 142 142
0.027456254 -0.50507355 -0.20423323 140 140 140
-0.055366665 -0.5108664 -0.19326498 139 139 139
-0.22024626 -0.48611182 -0.28313655 148 148 148
0.017338157 -0.589784 -0.19399191 139 139 139
-0.023495585 -0.59642416 -0.18194388 138 138 138
-0.024454147 -0.5262306 -0.19341305 139 139 139
-0.09456618 -0.6605758 -0.17394406 137 137 137
0.05721706 -0.5086224 -0.20746608 140 140 140
0.019004315 -0.5211318 -0.3959626 159 159 159
-0.2441048 -0.48306137 -0.24155267 144 144 144
0.047999352 -0.641966 -0.18753234 138 138 138
0.10246995 -0.6140892 -0.1998711 139 139 139
-0.052940518 -0.50338507 -0.19326621 139 139 139
0.03799081 -0.49770153 -0.39317337 159 159 159
-0.024672925 -0.5286383 -0.40973878 160 160 160
-0.07908742 -0.5021659 -0.42784756 162 162 162
-0.033655792 -0.4503013 -0.42610744 162 162 162
-0.102038816 -0.54624254 -0.18477137 138 138 138
-0.046565324 -0.6421371 -0.17162101 137 137 137
0.02914375 -0.5116084 -0.39648283 159 159 159
-0.079012156 -0.5973558 -0.17543703 137 137 137
0.022285283 -0.49599862 -0.20604508 140 140 140
-0.23909155 -0.48537815 -0.24127363 144 144 144
-0.20462742 -0.542349 -0.40730157 160 160 160
-0.077734366 -0.56967485 -0.18589051 138 138 138
0.05071506 -0.49807292 -0.20824899 140 140 140
-0.087121904 -0.6195693 -0.17208691 137 137 137
-0.087473735 -0.65413344 -0.16689683 136 136 136
-0.018149436 -0.5526913 -0.4093136 160 160 160
-0.21721682 -0.48628455 -0.2751748 147 147 147
0.002545029 -0.49940133 -0.2025912 140 140 140
-0.04098469 -0.4810822 -0.1993225 139 139 139
-0.20954877 -0.49021894 -0.23706497 143 143 143
-0.24446735 -0.6498214 -0.20865856 140 140 140
-0.0047596693 -0.5187739 -0.19454005 139 139 139
-0.2358406 -0.64400655 -0.20787774 140 140 140
-0.21110749 -0.6424514 -0.21084677 141 141 141
-0.08283639 -0.6524001 -0.16059853 136 136 136
-0.2485311 -0.5754896 -0.21564014 141 141 141
-0.26549068 -0.650433 -0.21840934 141 141 141
0.016678989 -0.51763767 -0.1993432 139 139 139
-0.004121572 -0.52987546 -0.19521265 139 139 139
-0.0624993 -0.5313226 -0.18777493 138 138 138
-0.062149882 -0.5281668 -0.18780233 138 138 138
0.049020648 -0.51431394 -0.20546539 140 140 140
0.043025702 -0.4922971 -0.20834053 140 140 140
-0.09074938 -0.6401916 -0.16838391 136 136 136
0.0010035932 -0.51818097 -0.19846556 139 139 139
-0.041439146 -0.4575895 -0.23274513 143 143 143
0.23555425 -0.66199976 -0.2145746 141 141 141
-0.052214622 -0.5276053 -0.18871935 138 138 138
-0.02314964 -0.4997638 -0.19642337 139 139 139
-0.03683892 -0.5161579 -0.19141495 139 139 139
-0.0062401593 -0.45700645 -0.20988418 140 140 140
-0.02480793 -0.45617867 -0.22720216 142 142 142
0.0675053 -0.44622326 -0.39448616 159 159 159
-0.04533848 -0.5338263 -0.18283528 138 138 138
0.09801546 -0.48965746 -0.36533943 156 156 156
-0.031552047 -0.59507847 -0.1850131 138 138 138
0.0788286 -0.53273994 -0.21103811 141 141 141
-0.10796666 -0.6530775 -0.11567219 131 131 131
-0.089076936 -0.6535114 -0.11479662 131 131 131
-0.09644273 -0.6531776 -0.11401037 131 131 131
-0.10553761 -0.45490357 -0.21527626 141 141 141
-0.23296031 -0.48324004 -0.26566273 146 146 146
-0.20141354 -0.48682043 -0.27861533 147 147 147
-0.102907 -0.53783005 -0.18316008 138 138 138
-0.09856394 -0.6562623 -0.16794674 136 136 136
-0.24708122 -0.48135087 -0.25531647 145 145 145
-6.298423E-4 -0.6454704 -0.17562959 137 137 137
0.045856297 -0.6235626 -0.18554865 138 138 138
-0.0828803 -0.46729088 -0.19229557 139 139 139
0.051477462 -0.48847774 -0.20900416 140 140 140
-0.051481843 -0.64992905 -0.16996863 136 136 136
0.004052371 -0.49073234 -0.20190938 140 140 140
0.072859496 -0.5501045 -0.20158532 140 140 140
-0.0645884 -0.49554384 -0.19129103 139 139 139
-0.059019387 -0.5157289 -0.18874432 138 138 138
-0.22530964 -0.48170337 -0.28451926 148 148 148
-0.10285461 -0.52122366 -0.18763624 138 138 138
-0.010875493 -0.50914633 -0.19649695 139 139 139
-0.06852868 -0.5087807 -0.18754604 138 138 138
0.013154358 -0.45547938 -0.24093756 144 144 144
-0.2028228 -0.51406795 -0.41437536 161 161 161
-0.20073622 -0.54658985 -0.40951845 160 160 160
-0.0188165 -0.526667 -0.19062437 139 139 139
-0.048219144 -0.6403214 -0.16948132 136 136 136
0.1133236 -0.6507255 -0.1951339 139 139 139
-0.22949289 -0.48214072 -0.25504443 145 145 145
-0.228857 -0.48541796 -0.26970735 146 146 146
0.022925287 -0.48762953 -0.20489171 140 140 140
0.05536142 -0.595127 -0.19164336 139 139 139
-0.20120539 -0.48547584 -0.27969766 147 147 147
0.14988974 -0.50234956 -0.29147527 149 149 149
-0.047955513 -0.53085655 -0.1836152 138 138 138
-0.10421768 -0.6517359 -0.11720428 131 131 131
-0.01247865 -0.52547675 -0.195057 139 139 139
-0.07493845 -0.6543498 -0.16741715 136 136 136
-0.03926006 -0.5908957 -0.1810143 138 138 138
0.026445895 -0.5047264 -0.20340276 140 140 140
-0.056142896 -0.5097984 -0.19186135 139 139 139
-0.22096607 -0.48494613 -0.2818457 148 148 148
0.017037123 -0.58917713 -0.19302005 139 139 139
-0.024265975 -0.5950823 -0.18067113 138 138 138
-0.02531305 -0.52481806 -0.19202326 139 139 139
-0.09498893 -0.6588913 -0.17231308 137 137 137
0.05667305 -0.5071389 -0.20644972 140 140 140
0.018636078 -0.5204114 -0.39503318 159 159 159
0.04679987 -0.63984954 -0.18593182 138 138 138
0.10188854 -0.61292577 -0.19862878 139 139 139
-0.05353105 -0.50254774 -0.19226192 139 139 139
0.037810206 -0.49718702 -0.39248776 159 159 159
-0.10304581 -0.54584193 -0.18352187 138 138 138
-0.04607162 -0.63869894 -0.17030004 137 137 137
0.028252572 -0.51095486 -0.39388344 159 159 159
-0.07953642 -0.59654665 -0.17439024 137 137 137
0.021562576 -0.49489477 -0.20489052 140 140 140
-0.2446453 -0.4806901 -0.25164247 145 145 145
-0.23954119 -0.48595488 -0.24121654 144 144 144
-0.20525625 -0.5410676 -0.40573224 160 160 160
-0.07835388 -0.56870484 -0.18479119 138 138 138
0.049998015 -0.49650332 -0.20679022 140 140 140
-0.08765438 -0.6184797 -0.17113695 137 137 137
-0.08834231 -0.6537317 -0.16590928 136 136 136
0.0017381012 -0.49819827 -0.20138358 140 140 140
-0.04170814 -0.48005524 -0.19822398 139 139 139
-0.21035562 -0.4887898 -0.23567241 143 143 143
-0.22789624 -0.48628783 -0.25015166 145 145 145
-0.24486971 -0.65021145 -0.20810986 140 140 140
-0.0055455565 -0.5174613 -0.19319785 139 139 139
-0.23634548 -0.6433915 -0.20691569 140 140 140
-0.083190486 -0.6519233 -0.15962683 135 135 135
-0.24888614 -0.5768926 -0.21571629 141 141 141
-0.26595294 -0.6504867 -0.21773677 141 141 141
0.0158315 -0.5162429 -0.197829 139 139 139
-0.063209474 -0.5292389 -0.18610524 138 138 138
-0.06281456 -0.5260613 -0.18624215 138 138 138
0.048283905 -0.51231515 -0.20390454 140 140 140
0.050981283 -0.46744913 -0.3956118 159 159 159
0.057592988 -0.49926186 -0.20641972 140 140 140
-0.017824352 -0.595711 -0.18542911 138 138 138
-0.091595605 -0.6402594 -0.16753842 136 136 136
8.67337E-4 -0.51811504 -0.19803739 139 139 139
-0.042295516 -0.45631996 -0.23132446 143 143 143
0.23463872 -0.6602988 -0.21305488 141 141 141
-0.053121775 -0.5261874 -0.1874184 138 138 138
-0.023860037 -0.49871138 -0.19530348 139 139 139
-0.07977408 -0.59400207 -0.17493504 137 137 137
-0.04877639 -0.4579318 -0.22615387 142 142 142
-0.005941659 -0.45722133 -0.20958291 140 140 140
0.047807455 -0.52595055 -0.3877367 158 158 158
-0.02500984 -0.45584172 -0.22657357 142 142 142
-0.045410275 -0.5338243 -0.18219739 138 138 138
-0.032206446 -0.5939511 -0.18382767 138 138 138
0.07903695 -0.45542464 -0.24746363 144 144 144
0.13722998 -0.47583142 -0.34273362 154 154 154
0.03671959 -0.48616531 -0.20821588 140 140 140
-0.10917711 -0.65263844 -0.11470768 131 131 131
-0.089747906 -0.65172076 -0.11391115 131 131 131
-0.097052485 -0.651521 -0.11315513 131 131 131
-0.10609028 -0.45351315 -0.21436259 141 141 141
-0.23348208 -0.48224527 -0.26517156 146 146 146
-0.2016872 -0.4855711 -0.277215 147 147 147
-0.10399586 -0.53731 -0.18267165 138 138 138
-0.2473073 -0.47985667 -0.25460896 145 145 145
-0.0010542274 -0.64423114 -0.17485878 137 137 137
0.045344323 -0.6221882 -0.18471944 138 138 138
0.05098912 -0.48713267 -0.20813982 140 140 140
0.0034696758 -0.48931342 -0.20097508 140 140 140
0.106464535 -0.5709151 -0.19917196 139 139 139
0.10176471 -0.5779533 -0.20322308 140 140 140
-0.06488103 -0.49447405 -0.1905812 139 139 139
-0.059189618 -0.51425403 -0.18775892 138 138 138
-0.22603463 -0.4810394 -0.28421745 148 148 148
-0.103196695 -0.5201199 -0.18691283 138 138 138
-0.011008531 -0.50752944 -0.19516265 139 139 139
-0.06889513 -0.5076527 -0.18675025 138 138 138
0.012711585 -0.45430374 -0.24073656 144 144 144
-0.20318286 -0.5129563 -0.41380668 161 161 161
-0.20143177 -0.5458411 -0.4091501 160 160 160
-0.019135743 -0.5253774 -0.19012615 139 139 139
-0.04892999 -0.6385223 -0.168532 136 136 136
0.11283305 -0.6493923 -0.19432023 139 139 139
-0.22985886 -0.48111784 -0.25443396 145 145 145
-0.22924906 -0.48428077 -0.26902694 146 146 146
0.022301018 -0.48612797 -0.20394541 140 140 140
0.05459833 -0.59464955 -0.19080083 139 139 139
-0.20196523 -0.48501402 -0.27946228 147 147 147
-0.10479581 -0.6501454 -0.11636169 131 131 131
-0.075683415 -0.6537803 -0.1665812 136 136 136
-0.0399718 -0.59025544 -0.17814472 137 137 137
0.025801718 -0.50319725 -0.20245172 140 140 140
-0.056624085 -0.5084418 -0.19101204 139 139 139
-0.22149542 -0.4839775 -0.28147748 148 148 148
0.017432064 -0.58710116 -0.19354238 139 139 139
-0.024384737 -0.5934242 -0.17974101 137 137 137
-0.0260126 -0.523478 -0.19039322 139 139 139
-0.09568679 -0.65699595 -0.17134595 137 137 137
0.018261492 -0.5190118 -0.39485005 159 159 159
0.10174602 -0.6110901 -0.19778505 139 139 139
-0.05408758 -0.50166047 -0.19131185 139 139 139
-0.1036509 -0.54421955 -0.18257749 138 138 138
0.02791506 -0.5097277 -0.39315248 159 159 159
-0.07991907 -0.5952621 -0.17354481 137 137 137
0.021079928 -0.49344724 -0.20358881 140 140 140
-0.20587441 -0.54029465 -0.40525305 160 160 160
-0.079086185 -0.56803674 -0.18381122 138 138 138
0.049248785 -0.49488205 -0.20578036 140 140 140
-0.088222235 -0.6169288 -0.17026189 137 137 137
-0.08934131 -0.65114504 -0.16473083 136 136 136
-0.21870786 -0.48486972 -0.27323768 147 147 147
0.0012338758 -0.49668312 -0.20014228 140 140 140
-0.042267054 -0.47893733 -0.19714828 139 139 139
-0.24539372 -0.64883125 -0.20670906 140 140 140
-0.006000519 -0.5159888 -0.1923675 139 139 139
-0.23663321 -0.641926 -0.20608315 140 140 140
-0.08368182 -0.6512449 -0.15905158 135 135 135
-0.24956389 -0.576438 -0.21536176 141 141 141
-0.2644239 -0.64736104 -0.21535471 141 141 141
0.01517573 -0.51468736 -0.1968755 139 139 139
-0.063946575 -0.52745813 -0.18507378 138 138 138
-0.06340754 -0.52452093 -0.18531655 138 138 138
0.047629625 -0.5107865 -0.20295522 140 140 140
0.0510661 -0.4666134 -0.39531064 159 159 159
0.057713926 -0.49855512 -0.20589864 140 140 140
-0.092832565 -0.6371238 -0.16616665 136 136 136
-0.04293871 -0.4548126 -0.2303284 143 143 143
0.23447078 -0.6603866 -0.21267523 141 141 141
-0.053578824 -0.52433056 -0.1865555 138 138 138
-0.024489254 -0.49757951 -0.19411893 139 139 139
-0.08020064 -0.5919027 -0.17378066 137 137 137
-0.04933074 -0.45629025 -0.22508295 142 142 142
-0.006447047 -0.45729464 -0.20911285 140 140 140
0.047295094 -0.525204 -0.38738522 158 158 158
-0.025581867 -0.45387018 -0.22547388 142 142 142
-0.032949865 -0.5923196 -0.1823649 138 138 138
0.07846388 -0.45400155 -0.24652722 144 144 144
0.03628114 -0.48487097 -0.20738077 140 140 140
-0.109504655 -0.6517114 -0.11406203 131 131 131
-0.089212805 -0.6499628 -0.11282637 131 131 131
-0.09664154 -0.6499642 -0.112164445 131 131 131
-0.10639173 -0.45260617 -0.21388413 141 141 141
-0.23394592 -0.4809737 -0.26418865 146 146 146
-0.20203061 -0.48483753 -0.27663594 147 147 147
-0.10429865 -0.53646547 -0.18201697 138 138 138
-0.24769509 -0.47899786 -0.25393742 145 145 145
0.05083257 -0.48639023 -0.20732944 140 140 140
0.0033490956 -0.4880904 -0.20020021 140 140 140
0.10680959 -0.5674808 -0.19881873 139 139 139
0.10100207 -0.5765488 -0.20237684 140 140 140
-0.06524876 -0.49401078 -0.19055453 139 139 139
-0.059562147 -0.5133028 -0.18706948 138 138 138
-0.22654015 -0.4796692 -0.28313792 148 148 148
-0.104053795 -0.52012384 -0.18590814 138 138 138
-0.011416495 -0.506539 -0.19446388 139 139 139
-0.06919116 -0.5068188 -0.18611093 138 138 138
-0.20404057 -0.5128925 -0.41311115 161 161 161
-0.20214292 -0.54383093 -0.40737414 160 160 160
-0.019586325 -0.5243179 -0.189398 138 138 138
-0.048364908 -0.6368552 -0.16786076 136 136 136
0.11249748 -0.6487184 -0.19313934 139 139 139
-0.23035036 -0.48093915 -0.2544408 145 145 145
-0.22964126 -0.48369485 -0.26839578 146 146 146
0.02209875 -0.4852359 -0.20283325 140 140 140
0.054234654 -0.59366447 -0.19012018 139 139 139
-0.20234814 -0.48406622 -0.2787035 147 147 147
-0.10487571 -0.6491297 -0.11530605 131 131 131
-0.07610604 -0.6526081 -0.16582654 136 136 136
-0.04082939 -0.588467 -0.17716753 137 137 137
0.025466591 -0.50257665 -0.20181909 140 140 140
-0.05671361 -0.5074116 -0.19005378 139 139 139
-0.22193182 -0.48284352 -0.2805773 148 148 148
-0.0956409 -0.6556457 -0.17018737 137 137 137
0.017310858 -0.51744187 -0.39353877 159 159 159
0.10129443 -0.609995 -0.19707082 139 139 139
-0.05461514 -0.50050235 -0.19052699 139 139 139
-0.10383409 -0.5431675 -0.18155755 138 138 138
0.027334511 -0.509688 -0.39292663 159 159 159
0.020375699 -0.49214956 -0.2027394 140 140 140
-0.24559525 -0.47874627 -0.25066614 145 145 145
-0.24008524 -0.48455378 -0.24047452 144 144 144
-0.20684992 -0.53739804 -0.40266246 160 160 160
-0.07947788 -0.5670119 -0.18309022 138 138 138
-0.08842099 -0.61583626 -0.16923459 136 136 136
-0.08864087 -0.64849925 -0.1637388 136 136 136
-0.21915033 -0.48447493 -0.2728458 147 147 147
6.8724155E-4 -0.49554184 -0.1993702 139 139 139
-0.042823523 -0.4777764 -0.1963538 139 139 139
-0.21128246 -0.48558098 -0.2336507 143 143 143
-0.24576117 -0.64752084 -0.20584385 140 140 140
-0.006270379 -0.515205 -0.19179635 139 139 139
-0.23686498 -0.64139706 -0.2055066 140 140 140
-0.08395675 -0.6503825 -0.1583854 135 135 135
-0.25006616 -0.57456315 -0.21421637 141 141 141
0.014855355 -0.51348543 -0.195868 139 139 139
-0.06406021 -0.52601254 -0.18415712 138 138 138
-0.0634993 -0.5230773 -0.18448512 138 138 138
0.047237486 -0.5097467 -0.20202404 140 140 140
0.0507257 -0.46558946 -0.39467704 159 159 159
0.05726704 -0.49787587 -0.20509724 140 140 140
-0.017817348 -0.59301627 -0.18455146 138 138 138
-0.09309977 -0.63610196 -0.16519593 136 136 136
-0.043316007 -0.453161 -0.22922382 142 142 142
0.23327428 -0.6585573 -0.2117139 141 141 141
-0.054164976 -0.52305996 -0.1857318 138 138 138
-0.024974138 -0.49649838 -0.19337405 139 139 139
-0.08038983 -0.5912355 -0.17318565 137 137 137
-0.050128013 -0.45486662 -0.22409095 142 142 142
0.045715123 -0.5229857 -0.38551962 158 158 158
-0.03359148 -0.5908905 -0.18151034 138 138 138
0.07803488 -0.45333412 -0.24590082 144 144 144
-0.10974857 -0.6509446 -0.113480635 131 131 131
-0.08937937 -0.64921486 -0.112394944 131 131 131
-0.09686035 -0.6491116 -0.11171424 131 131 131
-0.10690877 -0.4516071 -0.21338268 141 141 141
-0.23419257 -0.48005247 -0.26356533 146 146 146
-0.20231448 -0.48410368 -0.27613074 147 147 147
-0.24788228 -0.4782221 -0.25367838 145 145 145
0.050464064 -0.48540738 -0.20690192 140 140 140
0.10631633 -0.5663135 -0.19833715 139 139 139
0.10055563 -0.57564104 -0.20191471 140 140 140
-0.059168875 -0.51163006 -0.18609019 138 138 138
-0.22664389 -0.47859436 -0.2825432 148 148 148
-0.104379475 -0.51920956 -0.18545115 138 138 138
-0.011438876 -0.5052339 -0.19377767 139 139 139
-0.0693703 -0.50580096 -0.18574727 138 138 138
-0.20469749 -0.5112792 -0.4118836 161 161 161
-0.048572302 -0.6360341 -0.1674369 136 136 136
0.11220357 -0.64771044 -0.19271232 139 139 139
-0.2307338 -0.47997913 -0.25389028 145 145 145
-0.23007695 -0.4825817 -0.26774162 146 146 146
0.02173251 -0.48426244 -0.2023996 140 140 140
0.05444655 -0.5921094 -0.18958223 138 138 138
-0.20257589 -0.48313987 -0.27830374 147 147 147
-0.050399333 -0.5293591 -0.18136774 138 138 138
-0.10505086 -0.64838064 -0.11487075 131 131 131
-0.07600248 -0.65140444 -0.16546987 136 136 136
-0.041203856 -0.58724165 -0.17523743 137 137 137
0.025052875 -0.50154305 -0.201359 140 140 140
-0.05705598 -0.5064701 -0.18960406 138 138 138
-0.22209741 -0.48181427 -0.28004208 148 148 148
-0.095846295 -0.65485275 -0.16975306 136 136 136
0.016803414 -0.51643187 -0.39218047 159 159 159
0.10086256 -0.6091241 -0.19641319 139 139 139
-0.054868966 -0.4993407 -0.18959147 138 138 138
0.02666986 -0.5084578 -0.39221433 159 159 159
0.020218313 -0.49064806 -0.201695 140 140 140
-0.24581239 -0.47767958 -0.24995649 144 144 144
-0.2401031 -0.48308474 -0.23948029 143 143 143
-0.20727381 -0.53601694 -0.4008969 160 160 160
-0.08028948 -0.5663487 -0.18198812 138 138 138
-0.0886634 -0.6149889 -0.168794 136 136 136
-0.088678926 -0.6480474 -0.16339356 136 136 136
-0.21955958 -0.48345792 -0.27225536 147 147 147
3.9327145E-4 -0.49425822 -0.19848867 139 139 139
-0.043156505 -0.47660726 -0.19555925 139 139 139
-0.21148731 -0.4843036 -0.2327066 143 143 143
-0.2289779 -0.48266548 -0.24882498 144 144 144
-0.24586418 -0.6465238 -0.20533614 140 140 140
-0.0063066185 -0.5147556 -0.19170049 139 139 139
-0.23727521 -0.64136916 -0.20566447 140 140 140
-0.08447686 -0.65011716 -0.15820673 135 135 135
-0.25030914 -0.57371765 -0.21375945 141 141 141
-0.26505658 -0.64154965 -0.21241611 141 141 141
0.014653087 -0.5126785 -0.1954997 139 139 139
-0.064400494 -0.5250608 -0.18370026 138 138 138
-0.0638423 -0.5221237 -0.18402793 138 138 138
0.047116548 -0.50900215 -0.20169763 140 140 140
0.050004214 -0.46436688 -0.3939555 159 159 159
-0.04384771 -0.4521193 -0.2287251 142 142 142
0.23272336 -0.6572494 -0.2108557 141 141 141
-0.054724723 -0.52192616 -0.18477854 138 138 138
-0.050560653 -0.4536258 -0.22326173 142 142 142
-0.11808725 -0.46358243 -0.23360889 143 143 143
0.044767678 -0.52140915 -0.38371313 158 158 158
-0.034434497 -0.59029496 -0.1806073 138 138 138
0.07734111 -0.45210603 -0.24532537 144 144 144
-0.11054298 -0.6509122 -0.11353132 131 131 131
-0.09031299 -0.64907086 -0.11258508 131 131 131
-0.09776732 -0.6489245 -0.11178054 131 131 131
-0.108089745 -0.4515599 -0.21373607 141 141 141
-0.23497413 -0.47998452 -0.26349962 146 146 146
-0.2031582 -0.48408934 -0.2761066 147 147 147
-0.24870029 -0.47821423 -0.25363028 145 145 145
0.049407095 -0.48531252 -0.20681278 140 140 140
0.106160015 -0.56533957 -0.1994003 139 139 139
0.09978956 -0.57563484 -0.20207241 140 140 140
-0.059995294 -0.51143557 -0.18606956 138 138 138
-0.22745407 -0.47848472 -0.28245977 148 148 148
-0.10473028 -0.51838917 -0.1858864 138 138 138
-0.012232274 -0.505112 -0.19381343 139 139 139
-0.07013136 -0.505687 -0.18574913 138 138 138
-0.04949546 -0.6357984 -0.167661 136 136 136
0.11100972 -0.64774346 -0.19268838 139 139 139
-0.23173735 -0.4796853 -0.2539329 145 145 145
-0.2311505 -0.48231843 -0.26728535 146 146 146
0.020848691 -0.48391482 -0.20253843 140 140 140
0.05366862 -0.5920739 -0.18970016 138 138 138
-0.20337749 -0.48304486 -0.2782417 147 147 147
-0.10608432 -0.648292 -0.11495246 131 131 131
-0.041987747 -0.58714664 -0.1752719 137 137 137
0.024202615 -0.5011817 -0.20117338 140 140 140
-0.05809617 -0.50632805 -0.18945386 138 138 138
-0.2228696 -0.48180562 -0.2800256 148 148 148
-0.09682378 -0.65461767 -0.16962965 136 136 136
0.015780628 -0.5162555 -0.39216125 159 159 159
0.1000334 -0.60906374 -0.19655591 139 139 139
0.025690734 -0.5079406 -0.39187926 159 159 159
0.019504666 -0.49062246 -0.2017894 140 140 140
-0.24655265 -0.47771272 -0.2499383 144 144 144
-0.2408497 -0.48307207 -0.23943359 143 143 143
-0.20817295 -0.5360093 -0.40092084 160 160 160
-0.081140935 -0.5661218 -0.18195246 138 138 138
-0.08967787 -0.6148611 -0.1687827 136 136 136
-3.3384562E-4 -0.4942129 -0.19856204 139 139 139
-0.043836713 -0.47659153 -0.19561696 139 139 139
-0.2122157 -0.48430085 -0.23267879 143 143 143
-0.22978956 -0.48247704 -0.24869017 144 144 144
-0.2467031 -0.64635456 -0.20521459 140 140 140
-0.0071073174 -0.51478183 -0.1918238 139 139 139
-0.2381308 -0.6411207 -0.20552327 140 140 140
-0.08536923 -0.6498195 -0.15817267 135 135 135
-0.25113714 -0.5734912 -0.21360618 141 141 141
-0.26592165 -0.64125293 -0.21223937 141 141 141
0.0135374665 -0.51277614 -0.1955767 139 139 139
-0.06534886 -0.52487946 -0.18372332 138 138 138
-0.06536344 -0.5226346 -0.18378443 138 138 138
0.04610616 -0.50918365 -0.20257689 140 140 140
0.0486764 -0.4646433 -0.39416635 159 159 159
-0.01820904 -0.5923047 -0.18538572 138 138 138
-0.04455 -0.45213863 -0.2292487 142 142 142
0.2319794 -0.65735584 -0.2111443 141 141 141
-0.055392653 -0.521954 -0.18484193 138 138 138
-0.05125767 -0.4535983 -0.22331598 142 142 142
-0.11858891 -0.46386513 -0.23379578 143 143 143
0.04397759 -0.5214837 -0.38391864 158 158 158
-0.03538975 -0.5899556 -0.1805738 138 138 138
0.07642934 -0.45181128 -0.24541058 144 144 144
-0.11098793 -0.6504385 -0.112825125 131 131 131
-0.09075776 -0.64857703 -0.11223908 131 131 131
-0.09818104 -0.64849126 -0.11143993 131 131 131
-0.10854602 -0.45090407 -0.21340434 141 141 141
-0.23569153 -0.47961038 -0.2634131 146 146 146
-0.20383626 -0.48368204 -0.27617437 147 147 147
-0.24913675 -0.47793764 -0.2538934 145 145 145
0.04895863 -0.48486662 -0.2065253 140 140 140
0.099178195 -0.57563716 -0.20197178 140 140 140
-0.059570312 -0.5101709 -0.18549481 138 138 138
-0.22808062 -0.47803694 -0.28245625 148 148 148
-0.012702465 -0.5046395 -0.19347367 139 139 139
-0.04989943 -0.6354183 -0.1673485 136 136 136
0.11054015 -0.64729285 -0.1924065 139 139 139
-0.23215963 -0.47934127 -0.2536192 145 145 145
-0.23159383 -0.48193198 -0.26694885 146 146 146
0.020400763 -0.48346508 -0.2022413 140 140 140
-0.20403604 -0.48267764 -0.27799648 147 147 147
-0.10651511 -0.647826 -0.11460493 131 131 131
-0.042479157 -0.58668417 -0.1750834 137 137 137
-0.058543146 -0.50586885 -0.18912858 138 138 138
-0.22356021 -0.48142558 -0.2801472 148 148 148
-0.09729478 -0.6541186 -0.16927323 136 136 136
0.09967852 -0.6084487 -0.19642673 139 139 139
0.025154173 -0.50749373 -0.39156145 159 159 159
0.018910438 -0.49028677 -0.20173773 140 140 140
-0.08167943 -0.5656072 -0.18110663 138 138 138
-0.09008491 -0.61447614 -0.16845901 136 136 136
-7.761121E-4 -0.49372077 -0.19840124 139 139 139
-0.044569105 -0.47642142 -0.19543381 139 139 139
-0.21290734 -0.48400354 -0.2326902 143 143 143
-0.007287264 -0.51440936 -0.19196533 139 139 139
-0.23834148 -0.64043885 -0.20505488 140 140 140
-0.08569503 -0.6492959 -0.15811796 135 135 135
-0.25104812 -0.5726303 -0.21281996 141 141 141
-0.26612157 -0.64053035 -0.21166486 141 141 141
0.013170391 -0.51241237 -0.19530773 139 139 139
-0.06573206 -0.5245075 -0.18342409 138 138 138
0.045750827 -0.5088291 -0.2023229 140 140 140
-0.04497698 -0.45153046 -0.22895579 142 142 142
0.23145372 -0.6570895 -0.21112509 141 141 141
-0.051831514 -0.4532919 -0.22317997 142 142 142
0.043217957 -0.5216465 -0.3842694 158 158 158
0.1407342 -0.4440555 -0.3253598 152 152 152
0.07613015 -0.4514953 -0.24520637 144 144 144
-0.11138865 -0.65011764 -0.11242348 131 131 131
-0.09141186 -0.6481887 -0.11168502 131 131 131
-0.098691225 -0.6480298 -0.11091128 131 131 131
-0.10883471 -0.4506962 -0.21318674 141 141 141
-0.23601937 -0.47945967 -0.2630784 146 146 146
-0.20424637 -0.48335192 -0.27576944 147 147 147
-0.24954383 -0.47760594 -0.25349018 145 145 145
0.048416227 -0.48450896 -0.2062012 140 140 140
0.09859803 -0.5752105 -0.20154366 140 140 140
-0.2284124 -0.47787485 -0.28211638 148 148 148
-0.013016701 -0.50447476 -0.19312817 139 139 139
-0.050203413 -0.6349038 -0.16722542 136 136 136
0.11030823 -0.6466601 -0.19187215 139 139 139
-0.232414 -0.47878703 -0.2534502 145 145 145
-0.23206037 -0.4814454 -0.26674333 146 146 146
-0.20432743 -0.48260275 -0.2777087 147 147 147
-0.10728502 -0.64746654 -0.1139795 131 131 131
-0.042830676 -0.5864783 -0.17472702 137 137 137
-0.059028685 -0.5054501 -0.18868282 138 138 138
-0.2238645 -0.48133415 -0.27985018 147 147 147
-0.09790185 -0.65368056 -0.16863424 136 136 136
0.099264145 -0.6081853 -0.19605473 139 139 139
0.024786651 -0.50688505 -0.39131927 159 159 159
0.018597662 -0.49012035 -0.2013922 140 140 140
-0.08217764 -0.56516325 -0.18068105 138 138 138
-0.09068939 -0.6141622 -0.16823706 136 136 136
-0.0010817647 -0.49356312 -0.19805875 139 139 139
-0.044962704 -0.47616398 -0.19505209 139 139 139
-0.21321882 -0.48388195 -0.23236623 143 143 143
-0.0077484846 -0.5140229 -0.19154912 139 139 139
-0.23877366 -0.63990045 -0.20460069 140 140 140
-0.086135 -0.6489215 -0.15773211 135 135 135
0.012938291 -0.51183224 -0.19529095 139 139 139
-0.06592375 -0.523927 -0.18321343 138 138 138
0.04485342 -0.5090506 -0.20308352 140 140 140
-0.045088142 -0.45137775 -0.22907352 142 142 142
0.23125407 -0.65704167 -0.21081805 141 141 141
-0.052193552 -0.45307142 -0.22280854 142 142 142
0.14056352 -0.4439793 -0.32509053 152 152 152
0.075985074 -0.45082295 -0.2451565 144 144 144
-0.11150181 -0.65034485 -0.11189224 131 131 131
-0.09151772 -0.64844334 -0.11160037 131 131 131
-0.09880075 -0.64827615 -0.110827126 131 131 131
-0.2362479 -0.47938314 -0.26312512 146 146 146
-0.20448305 -0.4833747 -0.27600858 147 147 147
-0.24982966 -0.4777124 -0.25347608 145 145 145
0.048339337 -0.48477414 -0.20605364 140 140 140
0.098275274 -0.5752944 -0.20135733 140 140 140
-0.013156205 -0.5042878 -0.19351499 139 139 139
-0.050296575 -0.6351621 -0.16712782 136 136 136
0.11024758 -0.646962 -0.19175844 139 139 139
-0.23251891 -0.47892034 -0.25328928 145 145 145
-0.23214407 -0.48163024 -0.2666088 146 146 146
-0.20472759 -0.4824025 -0.27827585 147 147 147
-0.10741994 -0.64765674 -0.11389068 131 131 131
-0.043463886 -0.5867163 -0.17459148 137 137 137
-0.05912739 -0.50568694 -0.18855023 138 138 138
-0.22398692 -0.48116657 -0.28019157 148 148 148
-0.0980131 -0.65389687 -0.16854084 136 136 136
0.024668515 -0.5070457 -0.3911151 159 159 159
0.018082738 -0.49039647 -0.20108859 140 140 140
-0.08252907 -0.5651876 -0.18033347 138 138 138
-0.09073663 -0.6144984 -0.16815872 136 136 136
-0.0012388825 -0.49346924 -0.19831982 139 139 139
-0.04541582 -0.4763292 -0.19486986 139 139 139
-0.008015454 -0.51432526 -0.19133396 139 139 139
-0.08554581 -0.64859277 -0.1571222 135 135 135
0.012826651 -0.51206297 -0.19514427 139 139 139
-0.06601539 -0.5241746 -0.18309009 138 138 138
0.044724137 -0.50926656 -0.20292434 140 140 140
-0.045172244 -0.4516374 -0.22895 142 142 142
0.23119268 -0.65696055 -0.21081406 141 141 141
-0.052648336 -0.453221 -0.22280256 142 142 142
0.043174237 -0.52134186 -0.38453257 158 158 158
0.07585743 -0.45103744 -0.2449707 144 144 144
-0.09188801 -0.6481914 -0.11119129 131 131 131
-0.09931895 -0.6480531 -0.11056407 131 131 131
-0.23618113 -0.4795471 -0.263418 146 146 146
-0.24976407 -0.4777499 -0.25368267 145 145 145
0.048128486 -0.4847396 -0.2060202 140 140 140
0.09855175 -0.57564205 -0.2017251 140 140 140
-0.013148338 -0.5043341 -0.19374886 139 139 139
-0.050450712 -0.63492024 -0.1670983 136 136 136
0.10994786 -0.6469125 -0.19175082 139 139 139
-0.2327119 -0.47857183 -0.25343332 145 145 145
-0.23227501 -0.48132056 -0.26670277 146 146 146
-0.10771972 -0.64737314 -0.113650285 131 131 131
-0.043502122 -0.5867117 -0.1748487 137 137 137
-0.059390068 -0.5055448 -0.18863624 138 138 138
-0.2238911 -0.48139596 -0.28053606 148 148 148
-0.09837602 -0.6536737 -0.16832645 136 136 136
0.024496108 -0.5066569 -0.39137736 159 159 159
0.018148124 -0.49050137 -0.20134044 140 140 140
-0.0905368 -0.6141163 -0.16816416 136 136 136
-0.0012958944 -0.49344522 -0.19852471 139 139 139
-0.045315385 -0.47647133 -0.19512364 139 139 139
-0.007954419 -0.5143755 -0.19157156 139 139 139
-0.08594027 -0.6478887 -0.15728247 135 135 135
0.0125769675 -0.5119317 -0.19505364 139 139 139
-0.06643507 -0.52410096 -0.1831271 138 138 138
0.044592768 -0.50960696 -0.20231202 140 140 140
-0.045136184 -0.45178628 -0.22870934 142 142 142
0.23113489 -0.6570078 -0.21114174 141 141 141
-0.052459538 -0.45344386 -0.2230987 142 142 142
0.043170363 -0.52133363 -0.3847891 158 158 158
0.07526195 -0.4512386 -0.24508286 144 144 144
-0.110163465 -0.6507871 -0.113189004 131 131 131
-0.091895536 -0.64798445 -0.11201793 131 131 131
-0.09900941 -0.6485078 -0.1114522 131 131 131
-0.23515004 -0.48059386 -0.26452518 146 146 146
-0.24873163 -0.47910994 -0.2549399 145 145 145
0.048432797 -0.4850599 -0.20690438 140 140 140
0.099113345 -0.5760779 -0.20234352 140 140 140
-0.012712419 -0.5047825 -0.19455177 139 139 139
-0.05023268 -0.63517725 -0.16797519 136 136 136
0.11051574 -0.64753336 -0.19275594 139 139 139
-0.23207837 -0.48028082 -0.25499654 145 145 145
-0.23186527 -0.48234463 -0.26793414 146 146 146
-0.10739444 -0.6478717 -0.11454226 131 131 131
-0.059021384 -0.50602394 -0.18954644 138 138 138
-0.22279197 -0.48257506 -0.2815832 148 148 148
-0.09797314 -0.6543382 -0.1692813 136 136 136
0.025172025 -0.5073781 -0.39268842 159 159 159
0.018775135 -0.49086937 -0.20271388 140 140 140
-0.083813995 -0.56463885 -0.18097797 138 138 138
-0.08979401 -0.6154007 -0.16924742 136 136 136
-0.001060307 -0.49410754 -0.19907233 139 139 139
-0.04504159 -0.4770736 -0.1957505 139 139 139
-0.21254234 -0.48484635 -0.23369777 143 143 143
-0.007422924 -0.5149761 -0.19217572 139 139 139
0.013062298 -0.51247686 -0.19600716 139 139 139
-0.06576568 -0.5250326 -0.18416902 138 138 138
-0.044692934 -0.45229873 -0.22969797 142 142 142
0.2313895 -0.6576076 -0.21232903 141 141 141
-0.05133909 -0.4542513 -0.22400612 142 142 142
0.04414043 -0.52203333 -0.38587502 158 158 158
0.076859325 -0.45256892 -0.24653554 144 144 144
-0.110657126 -0.65008974 -0.11401414 131 131 131
-0.09353925 -0.6476922 -0.113043875 131 131 131
-0.09967932 -0.64869404 -0.11241886 131 131 131
-0.23452307 -0.48305562 -0.26642743 146 146 146
-0.24830298 -0.4812745 -0.2566135 145 145 145
0.099794924 -0.5776002 -0.20351146 140 140 140
-0.013058513 -0.50494915 -0.19526897 139 139 139
-0.051050916 -0.6354555 -0.1687552 136 136 136
0.11169532 -0.648088 -0.19427182 139 139 139
-0.23006636 -0.4824558 -0.25656295 145 145 145
-0.23079306 -0.48398632 -0.26920575 146 146 146
-0.10802831 -0.64808476 -0.11550621 131 131 131
-0.059038013 -0.5067053 -0.19021522 139 139 139
-0.22194943 -0.48561788 -0.28390226 148 148 148
-0.09823461 -0.6548435 -0.16944714 136 136 136
0.027171224 -0.5086739 -0.3936382 159 159 159
0.019072652 -0.49184352 -0.20370089 140 140 140
-0.24604836 -0.48147255 -0.25342298 145 145 145
-0.090024695 -0.6158312 -0.17019916 137 137 137
-0.22882381 -0.52431774 -0.4176883 161 161 161
-7.7036023E-4 -0.4950726 -0.2000581 140 140 140
-0.044261247 -0.47865695 -0.1969642 139 139 139
-0.2118859 -0.48709214 -0.23533481 143 143 143
-0.22933497 -0.4868302 -0.25149632 145 145 145
-0.007265091 -0.5158271 -0.19311082 139 139 139
-0.23314264 -0.48400223 -0.2781247 147 147 147
0.013086081 -0.5129589 -0.19695067 139 139 139
-0.21462548 -0.48857296 -0.2621332 146 146 146
-0.2072807 -0.4879697 -0.26128548 146 146 146
-0.043254703 -0.4540703 -0.23112407 143 143 143
0.2336992 -0.6608293 -0.21397287 141 141 141
-0.050144315 -0.45630008 -0.22551842 142 142 142
0.0794366 -0.45412034 -0.24798654 144 144 144
-0.10960001 -0.6515335 -0.11564805 131 131 131
-0.092958495 -0.6494354 -0.114684656 131 131 131
-0.09900973 -0.6507257 -0.11408922 131 131 131
-0.24716347 -0.48495352 -0.2595694 145 145 145
0.10145573 -0.5795816 -0.20477507 140 140 140
-0.014096111 -0.5054828 -0.19639866 139 139 139
-0.051175922 -0.6353883 -0.17011961 137 137 137
-0.10727308 -0.6504262 -0.11721935 131 131 131
-0.057999 -0.5087705 -0.19216204 139 139 139
0.0275871 -0.50950265 -0.39525005 159 159 159
-0.24498168 -0.48366588 -0.25575864 145 145 145
-0.08236091 -0.56555146 -0.18184167 138 138 138
-0.088800795 -0.6190906 -0.17228815 137 137 137
-0.22856136 -0.52395546 -0.41845846 161 161 161
3.7178397E-4 -0.49666685 -0.20129135 140 140 140
-0.042820886 -0.48018023 -0.19824778 139 139 139
-0.005696848 -0.5180945 -0.19482218 139 139 139
0.013488397 -0.51385033 -0.19850104 139 139 139
-0.042296022 -0.4557849 -0.233161 143 143 143
0.23524068 -0.6625789 -0.21492809 141 141 141
-0.04842083 -0.45853513 -0.22751324 142 142 142
0.07955162 -0.45465115 -0.24935582 144 144 144
-0.21720438 -0.48988116 -0.23450303 143 143 143
-0.23149395 -0.48846 -0.24716936 144 144 144
0.041000605 -0.5675015 -0.3821714 158 158 158
-0.102336645 -0.63398045 -0.1751667 137 137 137
-0.03873983 -0.44756934 -0.23450056 143 143 143
0.048869982 -0.54435843 -0.37713483 157 157 157
-0.08520266 -0.46144837 -0.2137092 141 141 141
-0.104080066 -0.45682952 -0.21815592 141 141 141
-0.24483503 -0.48608863 -0.25248554 145 145 145
-0.07937725 -0.5602398 -0.18064812 138 138 138
-0.22118704 -0.5171127 -0.41189867 161 161 161
-0.2229027 -0.49049738 -0.24136756 144 144 144
0.050810583 -0.48740762 -0.21166396 141 141 141
0.10139444 -0.58065546 -0.20678253 140 140 140
-0.013271816 -0.5081248 -0.19890636 139 139 139
-0.05150196 -0.6358804 -0.17175786 137 137 137
-0.082178116 -0.56718695 -0.18398897 138 138 138
-0.08755496 -0.621484 -0.17457283 137 137 137
0.0016293526 -0.49996436 -0.20405497 140 140 140
-0.04195886 -0.48298904 -0.20084855 140 140 140
-0.0050498247 -0.52015996 -0.19721891 139 139 139
0.014686547 -0.5156821 -0.20086809 140 140 140
-0.04089342 -0.458905 -0.2360617 143 143 143
0.23576865 -0.66452974 -0.21720186 141 141 141
-0.048093654 -0.46018386 -0.22974914 142 142 142
0.07948368 -0.45578003 -0.25089636 145 145 145
-0.21684922 -0.49174199 -0.23706129 143 143 143
-0.0672485 -0.5624797 -0.18396482 138 138 138
-0.0077602714 -0.50271064 -0.20051958 140 140 140
-0.10426689 -0.4571733 -0.2198204 141 141 141
-0.040637493 -0.44978318 -0.2375731 143 143 143
-0.024813898 -0.45931143 -0.23337097 143 143 143
-0.07741316 -0.56738126 -0.1842368 138 138 138
-0.021456018 -0.51005256 -0.19800863 139 139 139
0.063036524 -0.4618532 -0.25913554 145 145 145
0.74678206 -1.0643995 -0.37940517 157 157 157
0.047931008 -0.62517697 -0.18499607 138 138 138
0.08023741 -0.45635772 -0.25314954 145 145 145
0.008368678 -0.45829266 -0.24718963 144 144 144
0.0044972003 -0.46380034 -0.2472158 144 144 144
-0.20169076 -0.5818569 -0.4194258 161 161 161
-0.0062316507 -0.6217968 -0.18347453 138 138 138
-0.013865843 -0.61291164 -0.39179742 159 159 159
-0.07201788 -0.5583461 -0.4084044 160 160 160
0.038684987 -0.45739126 -0.2343912 143 143 143
4.1494519E-4 -0.6512022 -0.18078077 138 138 138
-0.03479571 -0.59574074 -0.18522407 138 138 138
-0.07619256 -0.65955853 -0.17205681 137 137 137
0.047515832 -0.6196318 -0.35718 155 155 155
0.009759553 -0.5113917 -0.2034373 140 140 140
0.014022507 -0.45729607 -0.24496521 144 144 144
-0.03822241 -0.46037668 -0.2321549 143 143 143
-0.19971898 -0.4943647 -0.2434229 144 144 144
0.015758969 -0.50781286 -0.40368637 160 160 160
0.028951742 -0.50966376 -0.20696272 140 140 140
0.028047375 -0.6457193 -0.38161495 158 158 158
-0.17263247 -0.6224145 -0.43685564 163 163 163
-0.26465678 -0.6627989 -0.22165367 142 142 142
-0.23752773 -0.64668304 -0.21164742 141 141 141
-0.024642587 -0.45845687 -0.23105809 143 143 143
-0.060026858 -0.5163392 -0.19096057 139 139 139
-0.041198365 -0.63287926 -0.17736536 137 137 137
-0.008396462 -0.51910824 -0.41453403 161 161 161
0.03259676 -0.45754015 -0.40940964 160 160 160
0.04951436 -0.46074536 -0.40255025 160 160 160
-0.19926937 -0.5782212 -0.4188744 161 161 161
-0.05298899 -0.5311284 -0.19088548 139 139 139
0.05888497 -0.5830158 -0.19667275 139 139 139
-0.21697772 -0.49236575 -0.23854116 143 143 143
-0.104357116 -0.521224 -0.19053897 139 139 139
-0.04486128 -0.45190826 -0.23941255 143 143 143
-0.06380418 -0.49543852 -0.19387607 139 139 139
-0.02541934 -0.5865565 -0.18610494 138 138 138
0.102787286 -0.58273023 -0.20860745 140 140 140
-0.011170406 -0.51012427 -0.19997591 139 139 139
-0.08059236 -0.5701504 -0.18515942 138 138 138
-0.08768273 -0.6225243 -0.1761862 137 137 137
-0.21709208 -0.4929721 -0.23881762 143 143 143
-0.006913744 -0.504302 -0.20348024 140 140 140
0.022487763 -0.5288525 -0.40541893 160 160 160
-0.076012924 -0.5708322 -0.18534878 138 138 138
-0.021489736 -0.5110803 -0.19963893 139 139 139
0.7524342 -1.0718201 -0.38319692 158 158 158
0.047575016 -0.6253719 -0.18642892 138 138 138
0.037187193 -0.49718493 -0.40764362 160 160 160
0.009533133 -0.4601665 -0.24983202 144 144 144
0.038678575 -0.50190496 -0.4007253 160 160 160
8.3460286E-4 -0.65405405 -0.18280704 138 138 138
-0.076268 -0.6597742 -0.17351858 137 137 137
0.10175936 -0.49547973 -0.37301823 157 157 157
0.015468236 -0.4598003 -0.24713549 144 144 144
0.07312438 -0.5497297 -0.37364766 157 157 157
0.017827164 -0.51241237 -0.40747792 160 160 160
0.02953827 -0.5107979 -0.20931302 140 140 140
0.09606002 -0.60577214 -0.19984499 139 139 139
-0.059280377 -0.5210761 -0.19367507 139 139 139
-0.04043993 -0.63802093 -0.17984343 137 137 137
-0.007869508 -0.5218914 -0.41773215 161 161 161
0.04608855 -0.4656212 -0.41561 161 161 161
-0.05209918 -0.53334713 -0.19329333 139 139 139
0.060715187 -0.58621585 -0.20018409 140 140 140
-0.051527582 -0.65450126 -0.17641872 137 137 137
-0.02177761 -0.50634956 -0.20158024 140 140 140
-0.03783049 -0.5924079 -0.18210258 138 138 138
0.05775139 -0.51410514 -0.21194609 141 141 141
-0.2171448 -0.4930464 -0.24006777 144 144 144
0.008993741 -0.4507573 -0.24968398 144 144 144
0.026593845 -0.5042394 -0.42006654 162 162 162
-0.0174819 -0.5323291 -0.19685936 139 139 139
0.01903614 -0.59836525 -0.19565979 139 139 139
0.055123422 -0.5987471 -0.19688427 139 139 139
0.05442727 -0.46358845 -0.40945345 160 160 160
-0.045164507 -0.45080665 -0.24009745 144 144 144
0.07940067 -0.46255577 -0.2530064 145 145 145
-0.06398935 -0.49455735 -0.19490138 139 139 139
-0.09091731 -0.6223321 -0.18287687 138 138 138
-0.20981967 -0.5349095 -0.4220906 162 162 162
0.6916352 -1.077178 -0.37904507 157 157 157
-0.06368518 -0.4867951 -0.19846644 139 139 139
0.046997 -0.62691677 -0.19233145 139 139 139
0.032218527 -0.59817314 -0.19547747 139 139 139
-0.1034538 -0.5497939 -0.18953577 138 138 138
-0.08044045 -0.47392038 -0.19955859 139 139 139
-0.15385328 -0.6540816 -0.42926612 162 162 162
0.06256616 -0.46173814 -0.2267848 142 142 142
-0.066640586 -0.51708776 -0.19513157 139 139 139
-0.2508512 -0.647479 -0.21477059 141 141 141
0.045978535 -0.5115427 -0.20861644 140 140 140
-0.08017873 -0.60123485 -0.18074946 138 138 138
0.013227951 -0.5008743 -0.2065382 140 140 140
-0.14027411 -0.6208988 -0.4313379 163 163 163
0.048757736 -0.5768298 -0.20340979 140 140 140
-0.07931824 -0.60300094 -0.18057662 138 138 138
0.05039994 -0.501088 -0.21212956 141 141 141
-0.1351724 -0.62925977 -0.4313553 163 163 163
0.027001131 -0.51931685 -0.20705818 140 140 140
-0.058738835 -0.64935654 -0.17829147 137 137 137
0.08518343 -0.55812067 -0.20936047 140 140 140
0.007178586 -0.5224947 -0.20361273 140 140 140
0.0731367 -0.59822375 -0.2040763 140 140 140
-0.0725513 -0.657642 -0.16594414 136 136 136
0.07716414 -0.55838567 -0.20921275 140 140 140
-0.005661022 -0.5316066 -0.19869019 139 139 139
0.0049176738 -0.52232915 -0.41263768 161 161 161
0.07555373 -0.6465135 -0.19191124 139 139 139
-0.21250872 -0.56936544 -0.40627518 160 160 160
0.053389132 -0.49051028 -0.21428876 141 141 141
-0.04933487 -0.6424528 -0.17522565 137 137 137
0.117232494 -0.6532083 -0.20430094 140 140 140
0.030496456 -0.51782554 -0.4045475 160 160 160
-0.08726539 -0.62495 -0.17765826 137 137 137
