ply
format ascii 1.0
comment author: vikas
comment object: test
element vertex 1010
property float x
property float y
property float z
property uchar red
property uchar green
property uchar blue
end_header
0.050743982 -0.42267188 -0.20385249 160 160 160
0.05970473 -0.42523906 -0.22227539 164 164 164
0.05144085 -0.42250445 -0.18537548 157 157 157
0.07457761 -0.42731455 -0.19886102 159 159 159
0.066788256 -0.42881572 -0.22853489 165 165 165
0.058574215 -0.42769548 -0.225601 165 165 165
0.2705801 -0.58131254 -0.19838353 159 159 159
0.28984362 -0.5812144 -0.18183872 156 156 156
0.33012235 -0.5993304 -0.15915151 151 151 151
0.30334795 -0.58624053 -0.17349634 154 154 154
0.295938 -0.59086794 -0.17361332 154 154 154
0.2776338 -0.57484233 -0.21084574 162 162 162
0.25056607 -0.58619344 -0.26256868 172 172 172
0.26533467 -0.59487426 -0.25431737 170 170 170
0.2940061 -0.5902494 -0.17063911 154 154 154
0.050222374 -0.41904986 -0.18690702 157 157 157
0.04654517 -0.4643169 -0.1528202 150 150 150
0.29101506 -0.57864827 -0.1811691 156 156 156
0.29708648 -0.5098747 -0.19496252 158 158 158
0.26821047 -0.57621026 -0.20143202 160 160 160
0.027454764 -0.5852222 -0.13832514 147 147 147
0.25074837 -0.5892171 -0.26168126 172 172 172
0.26935363 -0.5934241 -0.2557551 171 171 171
0.2984317 -0.5126219 -0.19091658 158 158 158
0.29118872 -0.57395 -0.24011035 168 168 168
0.07598782 -0.57845116 -0.13756068 147 147 147
0.06470677 -0.42406204 -0.19466342 158 158 158
0.076603934 -0.4253626 -0.17843291 155 155 155
0.05477719 -0.423642 -0.19349003 158 158 158
0.069443345 -0.42779914 -0.1988394 159 159 159
0.053850494 -0.4251273 -0.22661115 165 165 165
0.19248158 -0.5913281 -0.30996457 181 181 181
0.03364647 -0.5866827 -0.14069512 148 148 148
0.1379756 -0.5937388 -0.35468784 190 190 190
0.0841755 -0.42591378 -0.18138446 156 156 156
0.08763815 -0.42736784 -0.18712601 157 157 157
0.07545437 -0.42994776 -0.21110311 162 162 162
0.08681674 -0.4279825 -0.20562902 161 161 161
0.07948512 -0.4291538 -0.22807872 165 165 165
0.07678211 -0.4304675 -0.2240335 164 164 164
0.07536209 -0.42646804 -0.20677266 161 161 161
0.07403155 -0.4292266 -0.21703275 163 163 163
0.09263261 -0.42555884 -0.19345489 158 158 158
0.05107235 -0.42291856 -0.2046258 160 160 160
0.05258161 -0.42297423 -0.18628198 157 157 157
0.07584232 -0.4278545 -0.19964051 159 159 159
0.06782303 -0.42932168 -0.22932863 165 165 165
0.2706485 -0.5811045 -0.1996336 159 159 159
0.29002017 -0.5811081 -0.18301019 156 156 156
0.32960537 -0.59843624 -0.16100007 152 152 152
0.30332455 -0.58594525 -0.17485479 154 154 154
0.29567516 -0.5906569 -0.17496976 154 154 154
0.27798194 -0.5747402 -0.21167643 162 162 162
0.2506463 -0.58609116 -0.2637042 172 172 172
0.29388744 -0.5903187 -0.17179427 154 154 154
0.05144891 -0.4196218 -0.1877208 157 157 157
0.04768277 -0.4648202 -0.15367992 150 150 150
0.2913948 -0.5786408 -0.1820544 156 156 156
0.29740602 -0.5098603 -0.19581045 159 159 159
0.26847547 -0.5762236 -0.20237795 160 160 160
0.02807653 -0.5850452 -0.1397593 147 147 147
0.25075674 -0.5892091 -0.26275674 172 172 172
0.2706454 -0.59402215 -0.2563208 171 171 171
0.29904783 -0.5133964 -0.19145603 158 158 158
0.2908685 -0.5729588 -0.2416504 168 168 168
0.076695174 -0.5784824 -0.1387321 147 147 147
0.065742925 -0.42457625 -0.19544701 159 159 159
0.076934695 -0.42562956 -0.17923109 155 155 155
0.05511103 -0.42388698 -0.19426288 158 158 158
0.069775105 -0.42803058 -0.1996184 159 159 159
0.054176733 -0.42533746 -0.2273699 165 165 165
0.19284478 -0.59117615 -0.31070185 182 182 182
0.03513784 -0.58742976 -0.14145397 148 148 148
0.086686656 -0.4264906 -0.1885651 157 157 157
0.07423324 -0.42900324 -0.21297401 162 162 162
0.07436396 -0.4255934 -0.20866005 161 161 161
0.26966876 -0.58004904 -0.20101228 160 160 160
0.2890741 -0.580272 -0.18447588 156 156 156
0.32869938 -0.59779006 -0.16252309 152 152 152
0.30239505 -0.5851955 -0.17635019 155 155 155
0.29473403 -0.58986086 -0.17645386 155 155 155
0.27628285 -0.5735149 -0.21384883 162 162 162
0.24974512 -0.5851494 -0.26514006 173 173 173
0.29297128 -0.58962446 -0.17331822 154 154 154
0.29000998 -0.5779577 -0.18377504 156 156 156
0.29590097 -0.50883263 -0.19783449 159 159 159
0.26688784 -0.5751947 -0.20381397 160 160 160
0.027181089 -0.5841896 -0.14137116 148 148 148
0.24982947 -0.58812726 -0.2641165 172 172 172
0.29749972 -0.49292573 -0.20463468 160 160 160
0.29802206 -0.51232773 -0.19276081 158 158 158
0.28982252 -0.571596 -0.24283184 168 168 168
0.07577861 -0.5776444 -0.14031844 148 148 148
0.07587494 -0.42471465 -0.18109664 156 156 156
0.19062051 -0.58959526 -0.31279838 182 182 182
0.034275964 -0.58641803 -0.14301164 148 148 148
0.082356386 -0.42406252 -0.18509232 157 157 157
0.08592291 -0.4257606 -0.19066697 158 158 158
0.073650375 -0.42802325 -0.21501261 163 163 163
0.08431274 -0.42560166 -0.20954295 161 161 161
0.07407939 -0.42808655 -0.22773379 165 165 165
0.07377445 -0.42464685 -0.21071687 162 162 162
0.07120915 -0.42741603 -0.2204084 164 164 164
0.090334184 -0.42329755 -0.19719264 159 159 159
0.04962886 -0.42083728 -0.20877917 161 161 161
0.05001413 -0.4212639 -0.18953094 157 157 157
0.07319832 -0.4261836 -0.20282081 160 160 160
0.06530152 -0.42768732 -0.23248857 166 166 166
0.05689735 -0.42656335 -0.2293903 165 165 165
0.2687423 -0.57935435 -0.2033004 160 160 160
0.28824335 -0.57967156 -0.18653871 157 157 157
0.3282892 -0.5973527 -0.16412605 152 152 152
0.30198678 -0.5847247 -0.17832208 155 155 155
0.29457146 -0.58942294 -0.17835866 155 155 155
0.27565253 -0.5724666 -0.21606407 163 163 163
0.24884364 -0.5846306 -0.26703766 173 173 173
0.29246134 -0.5890783 -0.17553642 155 155 155
0.048755497 -0.41777107 -0.19088542 158 158 158
0.04525254 -0.4628795 -0.15719062 151 151 151
0.2893667 -0.57687336 -0.18598795 157 157 157
0.295188 -0.5076093 -0.1999041 159 159 159
0.26640472 -0.57412606 -0.20603119 161 161 161
0.026001185 -0.5832595 -0.14357242 148 148 148
0.24877909 -0.5875215 -0.26608023 173 173 173
0.26790413 -0.59143347 -0.25989738 171 171 171
0.29684973 -0.51172566 -0.19457528 158 158 158
0.28839386 -0.57075214 -0.24495834 168 168 168
0.0747771 -0.5767788 -0.14271232 148 148 148
0.07529762 -0.42375785 -0.18314438 156 156 156
0.05341678 -0.42195815 -0.19804612 159 159 159
0.06833884 -0.4260613 -0.20348811 160 160 160
0.13562126 -0.5915146 -0.35766453 191 191 191
0.08148411 -0.42331278 -0.18727052 157 157 157
0.085049346 -0.42500764 -0.19284946 158 158 158
0.07254776 -0.42672375 -0.21642104 163 163 163
0.08337254 -0.42505017 -0.21101013 162 162 162
0.075868234 -0.4260654 -0.23376065 166 166 166
0.07323089 -0.42743006 -0.2294369 165 165 165
0.07281763 -0.42345938 -0.21205793 162 162 162
0.070350386 -0.42659408 -0.22247793 164 164 164
0.08938996 -0.42247584 -0.199094 159 159 159
0.04836639 -0.41961402 -0.20990539 161 161 161
0.049157523 -0.42048106 -0.19159444 158 158 158
0.07234162 -0.42537087 -0.20488821 160 160 160
0.06444362 -0.42685357 -0.23455304 166 166 166
0.056038007 -0.4257443 -0.23145768 166 166 166
0.26792085 -0.5783116 -0.20551524 161 161 161
0.2874374 -0.57871383 -0.18879732 157 157 157
0.32736427 -0.5960035 -0.16627984 153 153 153
0.3011682 -0.58372015 -0.18057281 156 156 156
0.29369888 -0.5881836 -0.1805214 156 156 156
0.27449048 -0.5708372 -0.21811217 163 163 163
0.2480604 -0.58372515 -0.26933244 173 173 173
0.2916321 -0.5880138 -0.17776583 155 155 155
0.047891095 -0.4170059 -0.19295578 158 158 158
0.044422 -0.46213588 -0.15930948 151 151 151
0.2882804 -0.5753312 -0.1879225 157 157 157
0.29395017 -0.5064364 -0.20059149 160 160 160
0.26560813 -0.5729743 -0.20894362 161 161 161
0.025220394 -0.5826212 -0.1458471 149 149 149
0.24799371 -0.5865937 -0.2683651 173 173 173
0.2670661 -0.5902274 -0.26204285 172 172 172
0.29594773 -0.510586 -0.19667341 159 159 159
0.28756955 -0.5697081 -0.24717382 169 169 169
0.07399973 -0.57608694 -0.14497952 148 148 148
0.0524386 -0.4206478 -0.19948584 159 159 159
0.06714488 -0.42466095 -0.20482107 160 160 160
0.18973128 -0.58801454 -0.31657708 183 183 183
0.13483383 -0.5905914 -0.35994482 191 191 191
0.08293752 -0.42339107 -0.19568375 159 159 159
0.081164315 -0.42328885 -0.2138185 162 162 162
0.07364698 -0.42431593 -0.236603 167 167 167
0.07054646 -0.4219731 -0.21488948 162 162 162
0.08722044 -0.42057055 -0.20180033 160 160 160
0.04651443 -0.4188736 -0.19415428 158 158 158
0.069795676 -0.42377847 -0.20765354 161 161 161
0.061838716 -0.42525017 -0.23714285 167 167 167
0.053417906 -0.42409012 -0.2339955 166 166 166
0.26566228 -0.57658905 -0.20825803 161 161 161
0.32458323 -0.5937996 -0.16901965 153 153 153
0.2991624 -0.58181244 -0.18308164 156 156 156
0.27209324 -0.5686865 -0.22086535 164 164 164
0.24605684 -0.5816536 -0.27161813 174 174 174
0.042141378 -0.46060392 -0.16197453 152 152 152
0.26326644 -0.5708462 -0.21179892 162 162 162
0.023474887 -0.5812982 -0.14869046 149 149 149
0.24617088 -0.584699 -0.27059478 174 174 174
0.26489836 -0.58826935 -0.2648564 172 172 172
0.28518128 -0.56762445 -0.24990742 169 169 169
0.07160164 -0.5742321 -0.1480101 149 149 149
0.30276713 -0.57918906 -0.18147151 156 156 156
0.050109975 -0.41932005 -0.20239186 160 160 160
0.064810425 -0.42339644 -0.20778216 161 161 161
0.1324237 -0.5888037 -0.36275244 192 192 192
0.080475755 -0.42175195 -0.19766472 159 159 159
0.07956614 -0.4216204 -0.215763 163 163 163
0.07179541 -0.42270875 -0.23886348 167 167 167
0.06736965 -0.4205308 -0.21767029 163 163 163
0.085551485 -0.41877186 -0.20354956 160 160 160
0.06745233 -0.4221719 -0.20954974 161 161 161
0.059499174 -0.42363796 -0.23906578 167 167 167
0.2629881 -0.5739283 -0.20993535 161 161 161
0.28236336 -0.57327855 -0.19315003 158 158 158
0.3217762 -0.5912767 -0.17084613 154 154 154
0.29624963 -0.57860905 -0.18459748 156 156 156
0.2880059 -0.5828618 -0.1846639 156 156 156
0.243481 -0.5790287 -0.27324966 174 174 174
0.28666103 -0.58319074 -0.18181494 156 156 156
0.03973241 -0.45917022 -0.16399942 152 152 152
0.28457254 -0.5699093 -0.19156404 158 158 158
0.26118073 -0.56776667 -0.21462817 162 162 162
0.243666 -0.58254504 -0.2724951 174 174 174
0.2622497 -0.58549213 -0.2664282 173 173 173
0.2906115 -0.4863871 -0.21247238 162 162 162
0.29085922 -0.5058189 -0.19996282 159 159 159
0.069327295 -0.5717151 -0.14986545 149 149 149
0.29984498 -0.5760067 -0.18299136 156 156 156
0.13005683 -0.58699524 -0.36494684 192 192 192
0.07983583 -0.4204508 -0.19796313 159 159 159
0.07834895 -0.42013454 -0.21622097 163 163 163
0.070586964 -0.42118534 -0.23933654 167 167 167
0.06631136 -0.41893995 -0.21809126 163 163 163
0.08432688 -0.4173471 -0.20401743 160 160 160
0.04394371 -0.41503546 -0.19648214 159 159 159
0.06677459 -0.42012337 -0.20989496 161 161 161
0.058855757 -0.42147392 -0.23954703 167 167 167
0.05072007 -0.42012453 -0.23634344 167 167 167
0.26216832 -0.5713266 -0.21006091 162 162 162
0.2813983 -0.5710527 -0.19360122 158 158 158
0.32104263 -0.5882732 -0.17145452 154 154 154
0.29514724 -0.5770443 -0.18570356 157 157 157
0.28722617 -0.5800844 -0.18489543 156 156 156
0.2689173 -0.5649937 -0.22180282 164 164 164
0.24232727 -0.57717735 -0.27393165 174 174 174
0.28578514 -0.5809628 -0.18268311 156 156 156
0.038843244 -0.45720965 -0.16463454 152 152 152
0.28358617 -0.569658 -0.19271861 158 158 158
0.25982752 -0.5662263 -0.21523115 163 163 163
0.24237597 -0.5810346 -0.27332062 174 174 174
0.26122504 -0.58358896 -0.26773944 173 173 173
0.28982142 -0.48395416 -0.21333823 162 162 162
0.29002863 -0.5034987 -0.20063321 160 160 160
0.2812786 -0.55985767 -0.24965803 169 169 169
0.068513006 -0.56952405 -0.15009707 150 150 150
0.29887557 -0.57376367 -0.18364686 156 156 156
0.12911373 -0.58459353 -0.36508688 193 193 193
0.07873147 -0.41967258 -0.19842502 159 159 159
0.077359065 -0.41989538 -0.21630433 163 163 163
0.069420666 -0.42094272 -0.23939013 167 167 167
0.06548108 -0.41820276 -0.21797974 163 163 163
0.08324719 -0.4172091 -0.20401269 160 160 160
0.04284694 -0.41431767 -0.19696978 159 159 159
0.06568389 -0.41939092 -0.21038052 162 162 162
0.05776299 -0.42072096 -0.24005666 168 168 168
0.049628083 -0.41935462 -0.23684227 167 167 167
0.26095757 -0.57058066 -0.21063432 162 162 162
0.2801949 -0.5703802 -0.19418783 158 158 158
0.2938692 -0.5761859 -0.1862221 157 157 157
0.2859182 -0.5791216 -0.18538444 157 157 157
0.26790318 -0.5642408 -0.22155187 164 164 164
0.24109998 -0.5762332 -0.2744549 174 174 174
0.28454232 -0.5802098 -0.18324824 156 156 156
0.03770578 -0.45655534 -0.16517615 153 153 153
0.28208542 -0.5691102 -0.19406869 158 158 158
0.25845924 -0.5662438 -0.21555467 163 163 163
0.24115771 -0.5801414 -0.2738757 174 174 174
0.25998843 -0.58267236 -0.2682739 173 173 173
0.2885412 -0.48290095 -0.21362723 162 162 162
0.28007007 -0.5590462 -0.25019372 170 170 170
0.06730938 -0.5688138 -0.15073562 150 150 150
0.29755923 -0.5727982 -0.18412068 156 156 156
0.060329597 -0.41897893 -0.21036218 162 162 162
0.12794372 -0.58408827 -0.3660479 193 193 193
0.07891006 -0.42086035 -0.19812085 159 159 159
0.07768263 -0.42054108 -0.21655408 163 163 163
0.06975019 -0.4215875 -0.23965023 167 167 167
0.06573501 -0.41895792 -0.21822523 163 163 163
0.08356685 -0.4178642 -0.20426154 160 160 160
0.043224856 -0.41528723 -0.19666184 159 159 159
0.066120476 -0.42063326 -0.20988223 161 161 161
0.058234397 -0.42203647 -0.23954187 167 167 167
0.05011247 -0.42050502 -0.23649363 167 167 167
0.26086235 -0.56958514 -0.21170124 162 162 162
0.28013605 -0.56939214 -0.19523889 159 159 159
0.31990147 -0.58573824 -0.17425081 154 154 154
0.2941854 -0.57463163 -0.18738976 157 157 157
0.2859315 -0.57766193 -0.18659334 157 157 157
0.2415257 -0.5762084 -0.2747325 174 174 174
0.284523 -0.57917637 -0.18426724 156 156 156
0.03818746 -0.4576987 -0.16476086 152 152 152
0.28165478 -0.5674608 -0.19331598 158 158 158
0.25862804 -0.5663059 -0.21554708 163 163 163
0.24138162 -0.5801142 -0.2743115 174 174 174
0.2599535 -0.5819348 -0.268899 173 173 173
0.2886169 -0.48158544 -0.2149548 162 162 162
0.28879672 -0.5009744 -0.20271407 160 160 160
0.27978274 -0.5586345 -0.25075638 170 170 170
0.06771481 -0.5693051 -0.15087983 150 150 150
0.29719463 -0.5713277 -0.18540251 157 157 157
0.060529586 -0.42013484 -0.21084146 162 162 162
0.12840344 -0.58588326 -0.36607724 193 193 193
0.04586517 -0.41634914 -0.21611477 163 163 163
0.07230201 -0.42160678 -0.22215323 164 164 164
0.048070513 -0.41587356 -0.21905385 163 163 163
0.08320284 -0.4177478 -0.20457238 160 160 160
0.26106372 -0.570296 -0.21200767 162 162 162
0.280423 -0.5703471 -0.19562328 159 159 159
0.32030594 -0.5869285 -0.1746712 154 154 154
0.29438564 -0.5753119 -0.1876415 157 157 157
0.28620544 -0.5785861 -0.18694833 157 157 157
0.26728716 -0.56303686 -0.22152472 164 164 164
0.2847288 -0.57990515 -0.1845411 156 156 156
0.28205153 -0.5679362 -0.1937477 158 158 158
0.2891365 -0.5019068 -0.20311153 160 160 160
0.27983576 -0.55877125 -0.25077924 170 170 170
0.29760078 -0.5725757 -0.18588322 157 157 157
0.045723207 -0.41645166 -0.21644798 163 163 163
0.044861607 -0.41587108 -0.23643273 167 167 167
0.048019193 -0.415811 -0.21944961 163 163 163
0.043338843 -0.41538614 -0.19714256 159 159 159
0.06647284 -0.42075026 -0.21039739 162 162 162
0.26082492 -0.5709324 -0.21173722 162 162 162
0.28051513 -0.57114655 -0.19525382 159 159 159
0.3197829 -0.5876825 -0.1741232 154 154 154
0.2941419 -0.576086 -0.18720035 157 157 157
0.28586042 -0.5792017 -0.18663634 157 157 157
0.28458112 -0.58076406 -0.18401463 156 156 156
0.28229055 -0.568644 -0.19403258 158 158 158
0.28886068 -0.48365128 -0.21442714 162 162 162
0.2893433 -0.50312054 -0.20214084 160 160 160
0.27955514 -0.55886304 -0.25113454 170 170 170
0.29756624 -0.5734101 -0.18548283 157 157 157
0.08427106 -0.4191714 -0.20467955 160 160 160
0.044009127 -0.4164194 -0.19707985 159 159 159
0.06714468 -0.42182305 -0.21036828 162 162 162
0.26164365 -0.5720853 -0.21178053 162 162 162
0.28136957 -0.5723758 -0.19533013 159 159 159
0.32063514 -0.5888087 -0.17415282 154 154 154
0.2949859 -0.5772453 -0.18724456 157 157 157
0.28667045 -0.5802603 -0.18663482 157 157 157
0.26835757 -0.5643634 -0.22241184 164 164 164
0.2854055 -0.58186895 -0.18403132 156 156 156
0.28338367 -0.56936455 -0.19521129 159 159 159
0.28955355 -0.48449364 -0.21432382 162 162 162
0.28038225 -0.56004506 -0.25121713 170 170 170
0.29844978 -0.5746857 -0.1855774 157 157 157
0.021291986 -0.49234283 -0.17723301 155 155 155
0.047015257 -0.4179264 -0.2169745 163 163 163
0.046120197 -0.4172823 -0.23654851 167 167 167
0.04944811 -0.41733244 -0.21984017 163 163 163
0.08439374 -0.41941264 -0.20487529 160 160 160
0.044222184 -0.416761 -0.19794449 159 159 159
0.06721185 -0.42212844 -0.21131842 162 162 162
0.26210883 -0.5728476 -0.21262416 162 162 162
0.2818762 -0.57280034 -0.19571528 159 159 159
0.29528415 -0.57771766 -0.18765807 157 157 157
0.28698 -0.58059406 -0.18667403 157 157 157
0.26854968 -0.56501365 -0.22293541 164 164 164
0.28552222 -0.58225924 -0.1846279 156 156 156
0.28348097 -0.5696196 -0.19554055 159 159 159
0.28921247 -0.48445606 -0.21368964 162 162 162
0.28140318 -0.56066626 -0.25096995 170 170 170
0.29925215 -0.5750269 -0.18584765 157 157 157
0.046987526 -0.41853642 -0.217389 163 163 163
0.30231306 -0.44176942 -0.22679992 165 165 165
0.08617215 -0.41992387 -0.20490307 160 160 160
0.2650187 -0.57545483 -0.21243256 162 162 162
0.32359958 -0.59093994 -0.1731581 154 154 154
0.28937876 -0.5810786 -0.1855829 157 157 157
0.27054548 -0.5659905 -0.22311495 164 164 164
0.29130888 -0.48420143 -0.21229456 162 162 162
0.0553614 -0.42236865 -0.21241422 162 162 162
0.08180188 -0.42379797 -0.21359618 162 162 162
0.1544454 -0.59003705 -0.29930744 179 179 179
0.14459923 -0.59596926 -0.31215957 182 182 182
0.08941806 -0.42155632 -0.202061 160 160 160
0.26929724 -0.57734334 -0.21113664 162 162 162
0.28925857 -0.57465446 -0.19241498 158 158 158
0.30309772 -0.57852876 -0.18351384 156 156 156
0.292774 -0.58203804 -0.18248256 156 156 156
0.27382964 -0.5671475 -0.21989088 163 163 163
0.29097688 -0.58014584 -0.17778456 155 155 155
0.28937507 -0.5726304 -0.19207823 158 158 158
0.28960848 -0.56558 -0.2509452 170 170 170
0.30791813 -0.44494155 -0.2237693 164 164 164
0.15760487 -0.5900421 -0.29543853 179 179 179
0.14789808 -0.59766567 -0.30903703 181 181 181
0.27209964 -0.5787658 -0.20645675 161 161 161
0.2919842 -0.5757184 -0.18763681 157 157 157
0.3300484 -0.59384215 -0.16653594 153 153 153
0.30580613 -0.57952803 -0.17871565 155 155 155
0.29548153 -0.58303463 -0.17767838 155 155 155
0.27821177 -0.56856114 -0.21519388 163 163 163
0.29358855 -0.580782 -0.17289226 154 154 154
0.2946944 -0.5740944 -0.18908615 157 157 157
0.29713142 -0.48613644 -0.20471677 160 160 160
0.056367017 -0.42405355 -0.2114345 162 162 162
0.0588773 -0.42406017 -0.21550998 163 163 163
0.30485424 -0.46900123 -0.211487 162 162 162
0.312707 -0.44670504 -0.22009568 164 164 164
0.22980547 -0.4588337 -0.3584593 191 191 191
0.090531304 -0.41841733 -0.18840325 157 157 157
0.08522374 -0.4240967 -0.18573236 157 157 157
0.057351068 -0.41422266 -0.15878704 151 151 151
0.07389127 -0.43087137 -0.21546955 163 163 163
0.104109816 -0.43696946 -0.21542715 163 163 163
0.034451876 -0.4189673 -0.16919468 153 153 153
0.05864084 -0.41440162 -0.15337244 150 150 150
0.040774006 -0.4597998 -0.15877254 151 151 151
0.058986325 -0.41298857 -0.15048905 150 150 150
0.04198197 -0.4533713 -0.15238628 150 150 150
0.07558749 -0.41567492 -0.1600009 152 152 152
0.31532425 -0.5741657 -0.15872593 151 151 151
0.266161 -0.56312704 -0.19831572 159 159 159
0.28812373 -0.563999 -0.1706651 154 154 154
0.26879656 -0.5691515 -0.19137762 158 158 158
0.29517537 -0.48437667 -0.19040349 158 158 158
0.30272597 -0.5693113 -0.162265 152 152 152
0.29295298 -0.57755315 -0.16169083 152 152 152
0.30813444 -0.43382943 -0.20384762 160 160 160
0.29017913 -0.57421863 -0.15555286 151 151 151
0.27494523 -0.56422514 -0.19966942 159 159 159
0.32597655 -0.5871587 -0.15200123 150 150 150
0.30076423 -0.45982492 -0.19605486 159 159 159
0.2809506 -0.571759 -0.21370354 162 162 162
0.75747085 -0.9841201 -0.11043795 142 142 142
0.29480565 -0.49944454 -0.18036783 156 156 156
0.33976415 -0.42122138 -0.18477076 156 156 156
0.7858661 -0.98444 -0.08902931 137 137 137
0.31015086 -0.46759796 -0.18103474 156 156 156
0.32149813 -0.4368729 -0.19225608 158 158 158
-0.07806808 -1.0095663 0.09825841 100 100 100
-0.16142564 -1.000177 0.033014424 113 113 113
0.24784395 -0.57487166 -0.25044242 170 170 170
0.26511276 -0.5820733 -0.24229005 168 168 168
0.2232582 -0.46067828 -0.34641472 189 189 189
0.22596338 -0.44995338 -0.34013253 188 188 188
0.28139803 -0.5757282 -0.24767596 169 169 169
0.25492144 -0.44495624 -0.32025048 184 184 184
0.22584423 -0.45037335 -0.3320976 186 186 186
0.28458872 -0.33582723 -0.30711818 181 181 181
0.09362548 -0.41914773 -0.18319827 156 156 156
0.057686783 -0.41608083 -0.19680531 159 159 159
0.05989548 -0.4150622 -0.20000038 160 160 160
0.012549445 -0.57425165 -0.40701887 201 201 201
0.088117845 -0.6036925 -0.3942151 198 198 198
-0.014001556 -0.56559706 -0.42449793 204 204 204
0.09800621 -0.4139604 -0.17031986 154 154 154
0.054136686 -0.42083824 -0.21822305 163 163 163
0.060657375 -0.42000186 -0.21463843 162 162 162
-0.024609707 -0.5702741 -0.4136748 202 202 202
0.083496116 -0.42162758 -0.20080324 160 160 160
0.04554286 -0.5822174 -0.4389537 207 207 207
0.09953994 -0.5767408 -0.38617697 197 197 197
0.047110222 -0.5828497 -0.44511706 209 209 209
0.065575905 -0.42039102 -0.20778769 161 161 161
-0.27202654 -0.9769859 -0.15608566 151 151 151
0.32243145 -0.3018778 -0.2428506 168 168 168
0.3155319 -0.379099 -0.23949304 167 167 167
0.8407236 -0.9778753 -0.11859846 143 143 143
-0.19431366 -1.0098342 0.04496368 111 111 111
-0.29750338 -1.001222 -0.06342764 132 132 132
0.055634268 -0.42211425 -0.22646585 165 165 165
-0.21111524 -0.9864029 0.04281696 111 111 111
-0.26762742 -0.99801475 -0.02749183 125 125 125
0.7024437 -0.9692983 -0.18508616 157 157 157
-0.16088007 -1.016467 0.048954986 110 110 110
0.03772836 -0.55807465 -0.14787713 149 149 149
0.2793103 -0.3503461 -0.32435873 184 184 184
0.06371737 -0.41525483 -0.16848677 153 153 153
0.067906566 -0.42201757 -0.18335405 156 156 156
-0.32057437 -0.9893139 -0.064285636 132 132 132
0.68303204 -0.9832826 -0.16159573 152 152 152
0.732799 -0.9744534 -0.021294609 124 124 124
0.3187994 -0.3579083 -0.2354714 167 167 167
0.94147867 -0.9681781 0.058993615 108 108 108
0.8691993 -0.97220176 -0.18368536 156 156 156
-0.26260534 -0.9975075 -0.12347294 144 144 144
-0.009263873 -0.571356 -0.4204634 204 204 204
-0.018881865 -0.5989334 -0.44298556 208 208 208
-0.30470163 -0.9859262 -0.5230006 224 224 224
-0.21926877 -1.0001872 -0.014962003 122 122 122
0.027952738 -0.498101 -0.42606178 205 205 205
-0.32277033 -0.9958407 -0.5975702 239 239 239
0.0060093105 -0.4738258 -0.4409204 208 208 208
0.3160562 -0.5750942 -0.15620759 151 151 151
0.26635033 -0.5630135 -0.19574122 159 159 159
0.28439933 -0.5550392 -0.16706681 153 153 153
0.26594925 -0.5617842 -0.18779483 157 157 157
0.2913025 -0.47603744 -0.18657537 157 157 157
0.29954362 -0.5618153 -0.15890834 151 151 151
0.28939748 -0.5689731 -0.15823756 151 151 151
0.30378073 -0.42539418 -0.19976579 159 159 159
0.27365887 -0.5606514 -0.19658142 159 159 159
0.3222065 -0.5786999 -0.14866303 149 149 149
0.2970472 -0.45213097 -0.19223338 158 158 158
0.27945 -0.56772614 -0.2105006 162 162 162
0.27841878 -0.5815783 -0.17049553 154 154 154
0.7530233 -0.97715354 -0.10770565 141 141 141
0.29079223 -0.4906593 -0.17660445 155 155 155
0.30816078 -0.46316808 -0.177838 155 155 155
0.31838608 -0.430768 -0.18870093 157 157 157
0.73200643 -0.9750527 -0.05350785 130 130 130
0.33143204 -0.4879018 -0.1708104 154 154 154
-0.008201912 -1.0052472 0.047162935 110 110 110
-0.27291423 -1.0051172 -0.10944542 141 141 141
-0.16267571 -1.0081955 0.03664708 112 112 112
-0.30449873 -0.99722576 -0.09372414 138 138 138
0.24443986 -0.5656533 -0.24600492 169 169 169
0.26270688 -0.57566494 -0.23851377 167 167 167
0.28160077 -0.57564735 -0.24517137 169 169 169
0.25173646 -0.4376676 -0.3153082 183 183 183
0.22721861 -0.45291167 -0.33073473 186 186 186
0.09338175 -0.41779202 -0.18040566 156 156 156
0.08658187 -0.418846 -0.16729495 153 153 153
0.057143733 -0.4130515 -0.19370303 158 158 158
0.059115753 -0.41079932 -0.19665985 159 159 159
0.01122281 -0.56182224 -0.39963382 199 199 199
-0.014128655 -0.5674072 -0.4230343 204 204 204
0.053182617 -0.41543442 -0.21455738 162 162 162
0.060246572 -0.41774678 -0.21164797 162 162 162
0.076751515 -0.41867906 -0.19355479 158 158 158
-0.0608249 -0.55532056 -0.43575615 207 207 207
-0.025071561 -0.56547093 -0.4093782 201 201 201
0.08351199 -0.42145097 -0.19822314 159 159 159
0.25609422 -0.45313817 -0.29830673 179 179 179
-0.28298408 -1.0002043 -0.065176405 133 133 133
0.06523357 -0.41852325 -0.20488529 160 160 160
-0.2730824 -0.97914183 -0.15351757 150 150 150
-0.27210903 -0.99326396 -0.15744635 151 151 151
0.8371888 -0.9727248 -0.115890875 143 143 143
-0.29842925 -1.0024496 -0.060609028 132 132 132
-0.26874733 -1.0007018 -0.02453886 124 124 124
0.79112715 -0.9578706 -0.10048035 140 140 140
0.86825305 -0.9568777 0.079208136 104 104 104
0.06348966 -0.4128924 -0.16542783 153 153 153
0.048025087 -0.42116833 -0.18788825 157 157 157
0.066938326 -0.4170137 -0.18001118 156 156 156
0.85391027 -0.95959044 0.047691748 110 110 110
0.71148026 -0.9664103 0.08446866 103 103 103
0.72750455 -0.9658303 -0.019134924 123 123 123
0.31735843 -0.35455936 -0.23212324 166 166 166
0.609181 -0.97617435 0.11614373 96 96 96
0.88162225 -0.95383143 0.07473335 105 105 105
0.6686697 -0.9975549 0.15003008 89 89 89
0.8425111 -0.99410105 0.19414651 81 81 81
-0.26285434 -0.9949393 -0.11953274 143 143 143
0.28341907 -0.55318326 -0.18576322 157 157 157
0.29579312 -0.56738836 -0.22981021 165 165 165
-0.009918347 -0.5693245 -0.4157262 203 203 203
-0.019046098 -0.59240377 -0.43556103 207 207 207
-0.21968153 -1.0047117 -0.012796521 122 122 122
0.0103892535 -0.50217456 -0.41841444 203 203 203
0.028990135 -0.5730049 0.026088238 114 114 114
0.9015389 -0.99244237 0.10481307 99 99 99
0.30819726 -0.4888242 -0.16728184 153 153 153
0.2953925 -0.46757704 -0.18101147 156 156 156
0.27716082 -0.55886203 -0.18624751 157 157 157
0.050720677 -0.4079603 -0.17490849 154 154 154
0.05318229 -0.41325366 -0.17580825 155 155 155
0.029267907 -0.57925856 -0.11264326 142 142 142
0.02007331 -0.5510495 -0.13758011 147 147 147
0.042334333 -0.4619243 -0.14725748 149 149 149
0.28704566 -0.4696027 -0.1832236 156 156 156
0.23236029 -0.5955669 -0.22926497 165 165 165
0.3271619 -0.48497772 -0.17213859 154 154 154
0.32998997 -0.44648302 -0.18255796 156 156 156
0.008756593 -0.5625733 -0.39702258 199 199 199
-0.022335485 -0.55715173 -0.4094199 201 201 201
0.15555297 -0.57691735 -0.3259282 185 185 185
-0.0055086464 -0.49934638 -0.42727125 205 205 205
-0.028036758 -0.9719312 -0.68564034 257 257 257
0.20963244 -0.45015264 -0.3437212 188 188 188
0.24231054 -0.486611 -0.3082898 181 181 181
0.20941903 -0.29567796 -0.38062817 196 196 196
-0.042109355 -0.969187 -0.68648773 257 257 257
0.011635497 -0.44052577 -0.42793804 205 205 205
0.22457485 -0.3089487 -0.3635472 192 192 192
0.0032022595 -0.43469965 -0.43841514 207 207 207
0.03599672 -0.49284267 -0.41626093 203 203 203
-0.32653677 -0.99276114 -0.08644741 137 137 137
0.2209007 -0.28640807 -0.37906414 195 195 195
0.0019824654 -0.57787836 0.007973164 118 118 118
0.20485415 -0.3010109 -0.3807189 196 196 196
-0.072013676 -0.96607065 -0.74269634 268 268 268
0.040838584 -0.5923166 -0.037897393 127 127 127
-0.15467447 -0.57176286 -0.14613307 149 149 149
0.31565693 -0.57440287 -0.15450712 150 150 150
0.26510343 -0.5589519 -0.19363818 158 158 158
0.26567927 -0.5584126 -0.18675517 157 157 157
0.29043147 -0.47220713 -0.18514892 157 157 157
0.29951254 -0.56152374 -0.15764482 151 151 151
0.28809914 -0.5665672 -0.15593791 151 151 151
0.296218 -0.44562048 -0.19296603 158 158 158
0.27860335 -0.56484854 -0.20878163 161 161 161
0.2771326 -0.5771266 -0.16867816 153 153 153
0.28979376 -0.48615628 -0.17519078 155 155 155
0.33090356 -0.44817907 -0.17019798 154 154 154
0.3166574 -0.42687178 -0.18641943 157 157 157
0.73636305 -0.97461236 -0.055728182 131 131 131
0.32715306 -0.47941023 -0.16711071 153 153 153
0.2436417 -0.5639078 -0.24428286 168 168 168
0.26192698 -0.57113487 -0.23718809 167 167 167
0.21707669 -0.44568765 -0.3376188 187 187 187
0.27998433 -0.5688695 -0.2431644 168 168 168
0.2500899 -0.43124288 -0.3129734 182 182 182
0.22506079 -0.445392 -0.3275037 185 185 185
0.09267652 -0.41515285 -0.17885207 155 155 155
0.085829616 -0.4168676 -0.16568637 153 153 153
0.056437343 -0.4104638 -0.1920911 158 158 158
0.059401274 -0.40682387 -0.19619541 159 159 159
0.010064393 -0.5582741 -0.39734244 199 199 199
0.052803576 -0.4123512 -0.21335654 162 162 162
0.07580125 -0.41597486 -0.19165438 158 158 158
0.082858145 -0.4177153 -0.1966562 159 159 159
-0.1816726 -0.58537817 -0.27100176 174 174 174
0.30819586 -0.5561676 -0.15675595 151 151 151
0.255635 -0.4492067 -0.29749 179 179 179
-0.27409455 -0.9965013 -0.15646595 151 151 151
0.31241372 -0.37151378 -0.23406155 166 166 166
0.2175532 -0.42043537 -0.3447777 188 188 188
0.053687036 -0.41182375 -0.22092856 164 164 164
0.87928116 -0.96910286 0.082144916 103 103 103
0.06368807 -0.40987128 -0.16515046 153 153 153
0.06664488 -0.41223454 -0.17927033 155 155 155
0.8540342 -0.95782244 0.048529148 110 110 110
0.7122307 -0.96621275 0.08594149 102 102 102
0.7220572 -0.9570601 -0.017417073 123 123 123
0.7041651 -0.9729593 0.10627666 98 98 98
0.8854146 -0.9560211 0.07570052 104 104 104
0.6615493 -0.9851496 0.149061 90 90 90
0.28022978 -0.54592794 -0.18424359 156 156 156
0.29122528 -0.55785555 -0.2278289 165 165 165
0.88992643 -0.97707975 0.1035386 99 99 99
0.30710396 -0.48555624 -0.16607437 153 153 153
0.29660603 -0.46742916 -0.17977637 155 155 155
0.274923 -0.5560421 -0.18280461 156 156 156
0.70320654 -1.0250723 0.19021305 81 81 81
0.052338272 -0.41088957 -0.17397502 154 154 154
0.016590357 -0.6136026 -0.13364384 146 146 146
0.028549492 -0.577177 -0.11068113 142 142 142
0.008027941 -0.5637247 -0.39713955 199 199 199
0.0062732995 -0.8370987 -0.61306846 242 242 242
-0.030204251 -0.96989655 -0.6828885 256 256 256
0.24032226 -0.48101848 -0.30580673 181 181 181
-0.044354573 -0.96867526 -0.6844301 256 256 256
0.009687871 -0.4345262 -0.42333943 204 204 204
0.012057722 -0.45167983 -0.42065483 204 204 204
0.20458272 -0.2979021 -0.38001075 196 196 196
-0.074712306 -0.9630933 -0.73850775 267 267 267
0.824541 -0.9967203 0.18665874 82 82 82
0.0410662 -0.59107614 -0.036988363 127 127 127
0.10644588 -0.4202429 -0.1871185 157 157 157
0.26140454 -0.5695058 -0.18211043 156 156 156
0.14802691 -0.57083815 0.0021370798 119 119 119
0.06695306 -0.4792915 -0.14527017 149 149 149
0.26057926 -0.5567718 -0.23485313 166 166 166
0.13425493 -0.5098015 -0.26678467 173 173 173
0.25771114 -0.44436854 -0.29437202 178 178 178
0.0735257 -0.41827434 -0.2250402 165 165 165
-0.12518895 -0.977993 -0.5661994 233 233 233
0.9542388 -0.9634738 0.064807236 107 107 107
-0.09714395 -0.97618616 -0.5831251 236 236 236
0.285831 -0.53516525 -0.20566773 161 161 161
0.01772821 -0.9770464 -0.7013756 260 260 260
0.72042036 -0.9679651 0.3426461 51 51 51
-0.14230672 -0.975386 -0.5857185 237 237 237
-0.1380119 -0.980476 -0.53729683 227 227 227
-0.18523404 -0.5583759 -0.28157568 176 176 176
-0.17597482 -0.9719409 -0.5151789 223 223 223
-0.19417682 -0.98030674 -0.48345953 216 216 216
-0.17870626 -0.9809427 -0.5037768 220 220 220
-0.21180138 -0.98053503 -0.43388763 206 206 206
-0.016513899 -0.9734026 -0.71046066 262 262 262
-0.28669414 -0.9991753 -0.10854922 141 141 141
-0.07023409 -0.9666575 -0.64361 248 248 248
-0.21083409 -0.98317003 -0.42174944 204 204 204
-0.06397982 -0.9664414 -0.6771306 255 255 255
-0.041297346 -0.97178054 -0.6420953 248 248 248
-0.2521322 -0.9871963 -0.3544225 190 190 190
-0.29842198 -0.995569 -0.16484231 152 152 152
0.021876305 -0.9674264 -0.68531984 257 257 257
0.31570497 -0.5720614 -0.15285781 150 150 150
0.26628456 -0.55828536 -0.19189438 158 158 158
0.26664773 -0.5574157 -0.18501805 157 157 157
0.2906234 -0.47008243 -0.18351533 156 156 156
0.30113563 -0.56141293 -0.15581927 151 151 151
0.2881305 -0.5641589 -0.15429273 150 150 150
0.29633293 -0.4434224 -0.1913456 158 158 158
0.2791064 -0.5631751 -0.20706849 161 161 161
0.27734622 -0.5749819 -0.16699442 153 153 153
0.29000965 -0.4840503 -0.17355539 154 154 154
0.31596974 -0.42378613 -0.18486646 156 156 156
0.32666758 -0.4764906 -0.16555361 153 153 153
0.24401763 -0.562047 -0.24255276 168 168 168
0.26235798 -0.5693704 -0.2354617 167 167 167
0.2171193 -0.44338986 -0.33582267 187 187 187
0.28014132 -0.5667125 -0.24142842 168 168 168
0.25016978 -0.4290398 -0.3112309 182 182 182
0.093263745 -0.41342857 -0.1771984 155 155 155
0.056961387 -0.40860352 -0.1904389 158 158 158
0.06017202 -0.40547404 -0.19452529 158 158 158
0.010349512 -0.55600595 -0.3954234 199 199 199
0.053625703 -0.41114035 -0.2116892 162 162 162
0.07613319 -0.4137536 -0.1900182 158 158 158
0.083073586 -0.4152873 -0.19502315 159 159 159
0.25623515 -0.4476799 -0.2958345 179 179 179
0.31171307 -0.36854514 -0.23242661 166 166 166
0.21762863 -0.41820464 -0.3429949 188 188 188
0.875836 -0.9633919 0.08297247 103 103 103
0.06386572 -0.40747282 -0.16363834 152 152 152
0.066789776 -0.40978965 -0.17775784 155 155 155
0.85120654 -0.95272017 0.049598247 110 110 110
0.7003962 -0.9660891 0.10671988 98 98 98
0.885954 -0.9544159 0.07764599 104 104 104
0.28012517 -0.5425563 -0.1820414 156 156 156
0.2901161 -0.5506711 -0.22475708 164 164 164
-0.019199163 -0.5928595 -0.43128175 206 206 206
0.007825166 -0.49765596 -0.41259032 202 202 202
0.002561301 -0.5323335 -0.41021082 202 202 202
0.30797812 -0.48445275 -0.16451526 152 152 152
0.30077603 -0.470556 -0.17974825 155 155 155
0.8453932 -0.93547654 0.22580361 74 74 74
0.70327413 -0.9825648 0.17213121 85 85 85
0.053043783 -0.4093903 -0.1723012 154 154 154
0.014557779 -0.6036149 -0.13271782 146 146 146
0.029375374 -0.57618034 -0.10883318 141 141 141
0.021012217 -0.5522665 -0.13384832 146 146 146
0.008071333 -0.560709 -0.39504975 199 199 199
-0.030906543 -0.96285355 -0.6786737 255 255 255
0.23997796 -0.47816238 -0.3039691 180 180 180
-0.04470794 -0.9632802 -0.6808486 256 256 256
0.22249869 -0.30147192 -0.35974944 191 191 191
-0.07478663 -0.9590244 -0.735303 267 267 267
0.62601054 -0.9896965 0.25203934 69 69 69
0.04165706 -0.5893221 -0.03523816 127 127 127
0.10678899 -0.41818145 -0.18556719 157 157 157
0.19207719 -0.55650616 0.036877573 112 112 112
0.26140615 -0.56705403 -0.18050697 156 156 156
0.14740106 -0.5669105 0.003245175 119 119 119
0.04485932 -0.48845217 -0.14040597 148 148 148
0.13620701 -0.5107964 -0.26529497 173 173 173
0.14187059 -0.4950275 -0.288236 177 177 177
0.25712344 -0.44124594 -0.29273164 178 178 178
-0.07158008 -0.9637023 -0.5827549 236 236 236
-0.12522988 -0.97529495 -0.5640905 232 232 232
-0.0024941862 -0.4437773 -0.4452188 209 209 209
-0.05245538 -0.97834194 -0.65069973 250 250 250
0.01237601 -0.9710332 -0.72784257 265 265 265
-0.008690476 -0.9763099 -0.70805204 261 261 261
0.02639836 -0.5950742 -0.13825937 147 147 147
-0.09692566 -0.97549236 -0.5815768 236 236 236
0.28577855 -0.532675 -0.20407835 160 160 160
0.13343799 -0.41163734 -0.39082047 198 198 198
0.01780051 -0.97538495 -0.69952935 259 259 259
0.033495575 -0.5713643 -0.042193234 128 128 128
0.2120049 -0.27527034 -0.38327935 196 196 196
0.25403026 -0.23724964 -0.34935117 189 189 189
-0.0032373667 -0.97714555 -0.7276727 265 265 265
-0.17219034 -0.5708095 -0.14192209 148 148 148
0.18350416 -0.29171768 -0.3944099 198 198 198
0.24034977 -0.2744744 -0.35658264 191 191 191
-0.004449159 -0.47690198 -0.4196639 203 203 203
-0.14237577 -0.9723351 -0.5834936 236 236 236
-0.13795082 -0.9786289 -0.5354222 227 227 227
-0.07833916 -0.9779247 -0.6580835 251 251 251
-0.050647378 -0.9772308 -0.6976116 259 259 259
-0.026232451 -0.93457305 -0.7033691 260 260 260
0.060851455 -0.41119763 -0.18307474 156 156 156
0.23660967 -0.5687038 0.060899884 107 107 107
0.8545346 -0.9407333 0.19316968 81 81 81
0.09065336 -0.41271523 -0.17002207 154 154 154
0.107990414 -0.56808865 -0.034575835 126 126 126
0.86527014 -0.97499645 0.2461578 70 70 70
0.07076192 -0.41832265 -0.21194339 162 162 162
0.27522328 -0.52744746 -0.17461163 154 154 154
0.013383418 -0.5506691 -0.16732982 153 153 153
0.24405381 -0.57114947 -0.2403254 168 168 168
0.19808206 -0.44734284 -0.3436708 188 188 188
-0.17657316 -0.9712542 -0.5123683 222 222 222
-0.062501565 -0.55212235 -0.43737003 207 207 207
-0.19386816 -0.9785545 -0.4814847 216 216 216
-0.17912847 -0.98844874 -0.5041508 220 220 220
-0.1487159 -0.94970167 -0.4500491 210 210 210
-0.21090981 -0.97642744 -0.43184948 206 206 206
-0.017889172 -0.96971655 -0.7056496 261 261 261
0.30107734 -0.4576485 -0.17651239 155 155 155
0.021197379 -0.5156908 -0.15049206 150 150 150
0.20219919 -0.24367318 -0.39454204 198 198 198
-0.2842872 -0.99306536 -0.10825533 141 141 141
0.84085155 -0.9672096 0.2742972 65 65 65
0.049045622 -0.41175243 -0.2088502 161 161 161
0.29797605 -0.50311184 -0.23267119 166 166 166
-0.21008119 -0.9799031 -0.41967022 203 203 203
0.17787716 -0.28381816 -0.40256482 200 200 200
0.84848785 -0.9359989 0.3009301 59 59 59
0.1790559 -0.2767219 -0.40505224 201 201 201
0.31287315 -0.3974637 -0.24525793 169 169 169
-0.06547399 -0.97703433 -0.67772084 255 255 255
-0.04188606 -0.9672619 -0.6380378 247 247 247
0.013525844 -0.96439004 -0.7497901 269 269 269
0.9535823 -1.0107404 0.14822978 90 90 90
-0.25011095 -0.9808055 -0.35308513 190 190 190
0.9051385 -0.93925667 0.09738746 100 100 100
0.86496174 -0.97311425 0.11147073 97 97 97
0.3175191 -0.5686908 -0.15117556 150 150 150
0.26873615 -0.5569302 -0.1915806 158 158 158
0.27118757 -0.5562321 -0.18695945 157 157 157
0.29122707 -0.46745178 -0.18075997 156 156 156
0.2974126 -0.44072673 -0.18908907 157 157 157
0.28159937 -0.5621406 -0.20677215 161 161 161
0.2819784 -0.5705298 -0.16418162 152 152 152
0.31773838 -0.42142168 -0.18357202 156 156 156
0.32777324 -0.47395995 -0.16340001 152 152 152
0.24405968 -0.56087327 -0.23987976 167 167 167
0.095157176 -0.41196856 -0.17612952 155 155 155
0.062036246 -0.40457603 -0.19373731 158 158 158
0.056902915 -0.41033402 -0.2121892 162 162 162
0.086268246 -0.41353068 -0.19472541 158 158 158
0.31337956 -0.3667533 -0.2312906 166 166 166
0.87722456 -0.95878696 0.08206105 103 103 103
0.69774735 -0.9576901 0.10565376 98 98 98
0.28230527 -0.54140437 -0.18163174 156 156 156
0.004397124 -0.53089607 -0.40984294 201 201 201
0.24326363 -0.47396109 -0.3021248 180 180 180
0.10929632 -0.41811398 -0.18579772 157 157 157
0.2628553 -0.5662432 -0.18069637 156 156 156
0.1442712 -0.4945247 -0.2879141 177 177 177
-0.06794757 -0.96538496 -0.582741 236 236 236
-0.122839496 -0.97432685 -0.5639356 232 232 232
-6.19486E-4 -0.44335476 -0.4447117 208 208 208
-0.051452875 -0.977818 -0.64955777 249 249 249
-0.00552696 -0.9779016 -0.70777273 261 261 261
-0.096576974 -0.9715133 -0.5791877 235 235 235
0.28611103 -0.5300077 -0.20333588 160 160 160
0.13557541 -0.4112229 -0.39079064 198 198 198
-0.13748318 -0.9748237 -0.5335661 226 226 226
-0.048859686 -0.9786799 -0.6990056 259 259 259
0.06175676 -0.4082162 -0.1828793 156 156 156
0.8473551 -0.92920387 0.18975383 82 82 82
-0.14547445 -0.9585328 -0.45146787 210 210 210
-0.015815333 -0.9675087 -0.7050315 261 261 261
0.301923 -0.45495382 -0.1762625 155 155 155
0.022265196 -0.51241577 -0.15040281 150 150 150
0.29892215 -0.5004053 -0.23233134 166 166 166
0.8477818 -0.93108106 0.29980752 60 60 60
-0.062960744 -0.9772297 -0.67797613 255 255 255
0.016294003 -0.96514 -0.75040495 270 270 270
0.31788036 -0.5689687 -0.15069543 150 150 150
0.26968268 -0.55796254 -0.19096768 158 158 158
0.29225722 -0.46847224 -0.1801621 156 156 156
0.28219566 -0.5627004 -0.20620948 161 161 161
0.31867424 -0.42230433 -0.18300986 156 156 156
0.3286306 -0.47480953 -0.16284224 152 152 152
0.2204862 -0.44128907 -0.33432388 186 186 186
0.059393644 -0.40831345 -0.18881558 157 157 157
0.0628584 -0.40497154 -0.19313788 158 158 158
0.013706446 -0.5541042 -0.39457536 198 198 198
0.0575563 -0.41041034 -0.21161377 162 162 162
0.25863189 -0.44703472 -0.29418284 178 178 178
0.3144724 -0.36775535 -0.23072362 166 166 166
0.28296307 -0.5427388 -0.18141124 156 156 156
-0.017411202 -0.5920514 -0.42887637 205 205 205
0.31025323 -0.48159224 -0.16270833 152 152 152
0.012262166 -0.5580242 -0.39461017 198 198 198
0.263303 -0.5663685 -0.18031763 156 156 156
0.14854795 -0.4961413 -0.28946596 177 177 177
0.06452948 -0.40901893 -0.18228097 156 156 156
0.2997673 -0.45505637 -0.17561899 155 155 155
0.2993491 -0.5010988 -0.23188989 166 166 166
0.31747055 -0.5678041 -0.14841998 149 149 149
0.2697252 -0.5576717 -0.18969905 157 157 157
0.2692247 -0.55582166 -0.1832238 156 156 156
0.2929076 -0.46759057 -0.17954804 155 155 155
0.29103315 -0.5617183 -0.15114947 150 150 150
0.2818104 -0.56195515 -0.20416364 160 160 160
0.31843287 -0.42122173 -0.1812394 156 156 156
0.3291042 -0.47316778 -0.16154087 152 152 152
0.24698408 -0.56070197 -0.23954816 167 167 167
0.21978913 -0.43970376 -0.33100408 186 186 186
0.09676795 -0.41180122 -0.17454265 154 154 154
0.060062036 -0.40738672 -0.18722117 157 157 157
0.06261821 -0.40494114 -0.19207934 158 158 158
0.011303961 -0.55383146 -0.39171475 198 198 198
0.056831285 -0.40979612 -0.20935887 161 161 161
0.25845563 -0.44581223 -0.29227808 178 178 178
0.31387603 -0.36688587 -0.22862212 165 165 165
0.8710758 -0.9537468 0.08249003 103 103 103
0.8894227 -0.95426273 0.07843542 104 104 104
0.28279895 -0.5428645 -0.17931078 155 155 155
-0.01781638 -0.5924527 -0.4271639 205 205 205
0.004478693 -0.5313076 -0.40588123 201 201 201
0.84986347 -0.9325391 0.22649771 74 74 74
0.009553775 -0.55774283 -0.39127105 198 198 198
0.24151884 -0.4762135 -0.3005898 180 180 180
0.26114494 -0.5609651 -0.17864507 155 155 155
-0.06858072 -0.9651607 -0.58038837 236 236 236
-0.122706555 -0.9730648 -0.5617453 232 232 232
0.13653867 -0.41194487 -0.38869762 197 197 197
0.064655885 -0.40958565 -0.17999278 155 155 155
-0.059814572 -0.55054575 -0.434435 206 206 206
0.022122875 -0.5093166 -0.14768702 149 149 149
0.85832816 -0.94312406 0.30842984 58 58 58
0.31522527 -0.56344604 -0.14799047 149 149 149
0.26887128 -0.55506706 -0.18885039 157 157 157
0.26853928 -0.553449 -0.1823454 156 156 156
0.2920296 -0.4650178 -0.17874438 155 155 155
0.2899215 -0.5587784 -0.15041631 150 150 150
0.28100267 -0.55944943 -0.20329127 160 160 160
0.24729869 -0.55982095 -0.23850353 167 167 167
0.2210043 -0.4398138 -0.33016732 186 186 186
0.09575525 -0.40848398 -0.17383231 154 154 154
0.05938503 -0.40454 -0.18637595 157 157 157
0.06219563 -0.40259087 -0.19113725 158 158 158
0.011365056 -0.5531831 -0.39084786 198 198 198
0.05648178 -0.40759623 -0.20837992 161 161 161
0.2574828 -0.44313735 -0.2913341 178 178 178
0.8655288 -0.94721115 0.08165985 103 103 103
0.88380265 -0.9477495 0.077623576 104 104 104
0.28213766 -0.54113376 -0.17865829 155 155 155
-0.018013895 -0.5879666 -0.42517036 205 205 205
0.003966421 -0.5302412 -0.40516067 201 201 201
0.8360071 -0.9175184 0.22081429 75 75 75
0.009786904 -0.55762607 -0.39047453 198 198 198
0.23966107 -0.4723192 -0.29961213 179 179 179
0.107026815 -0.41039425 -0.18099494 156 156 156
0.26003054 -0.55798537 -0.17776603 155 155 155
-0.06877485 -0.9657202 -0.57968324 235 235 235
0.1375691 -0.41195 -0.38784832 197 197 197
0.06344959 -0.40656114 -0.17894559 155 155 155
0.020684123 -0.502263 -0.14702435 149 149 149
0.8582798 -0.9419801 0.30861056 58 58 58
0.3148183 -0.5567004 -0.14547934 149 149 149
0.26858243 -0.5512633 -0.18848981 157 157 157
0.26920477 -0.549695 -0.18320736 156 156 156
0.29081586 -0.46015942 -0.17724818 155 155 155
0.28854963 -0.5553744 -0.14868042 149 149 149
0.28054556 -0.55576473 -0.20277695 160 160 160
0.24667755 -0.556509 -0.23766695 167 167 167
0.09467596 -0.40398818 -0.17216264 154 154 154
0.055989385 -0.40389097 -0.20747945 161 161 161
0.25879303 -0.43746203 -0.29172355 178 178 178
0.8602239 -0.9377556 0.08039805 103 103 103
0.28069195 -0.5369699 -0.17858376 155 155 155
-0.01765573 -0.58624154 -0.4251524 205 205 205
0.00486061 -0.5297659 -0.40522426 201 201 201
0.01086539 -0.555183 -0.39179072 198 198 198
0.24031189 -0.46583706 -0.29949975 179 179 179
0.106152 -0.40536612 -0.18030609 156 156 156
0.25819144 -0.5530114 -0.17686313 155 155 155
0.13696834 -0.40823483 -0.38658226 197 197 197
0.019171089 -0.49668884 -0.14764223 149 149 149
0.31414226 -0.55571383 -0.14460637 148 148 148
0.26778623 -0.5500752 -0.18765327 157 157 157
0.28997174 -0.4589161 -0.17637408 155 155 155
0.2870567 -0.5534112 -0.1481008 149 149 149
0.2794313 -0.55419207 -0.20202364 160 160 160
0.24560574 -0.5549132 -0.23689312 167 167 167
0.09371069 -0.40239492 -0.17138407 154 154 154
0.057433546 -0.399406 -0.18432568 156 156 156
0.060857087 -0.39688954 -0.1895829 157 157 157
0.055197656 -0.40246806 -0.20661928 161 161 161
0.8589486 -0.9369958 0.08116987 103 103 103
0.28038344 -0.53336525 -0.17678396 155 155 155
-0.017704576 -0.5866957 -0.42566 205 205 205
0.004047841 -0.5255528 -0.40370777 200 200 200
0.24013647 -0.46519247 -0.29854545 179 179 179
0.10557312 -0.40451512 -0.17917405 155 155 155
0.25736395 -0.55198884 -0.17587267 155 155 155
0.017982632 -0.49297383 -0.14465827 148 148 148
0.843982 -0.9250558 0.30441138 59 59 59
-0.1297001 -0.9608239 -0.42603445 205 205 205
-0.08056133 -0.961468 -0.47334975 214 214 214
-0.09903477 -0.9594358 -0.4787546 215 215 215
-0.07569836 -0.95833933 -0.49722987 219 219 219
-0.1647773 -0.9683549 0.032850087 113 113 113
-0.16325444 -0.5451663 -0.13447523 146 146 146
-0.17020303 -0.5597447 -0.12893608 145 145 145
-0.17124882 -0.56377447 -0.14017288 148 148 148
0.006480463 -0.55560476 -0.38999385 197 197 197
-0.17976077 -0.55939466 -0.12791085 145 145 145
-0.18857104 -0.9869911 0.03566341 112 112 112
-0.30147594 -0.99356586 -0.058748752 131 131 131
-0.22069235 -0.9631168 -0.018610418 123 123 123
0.008300208 -0.5507672 -0.3902226 198 198 198
-0.062082026 -0.5443346 -0.42802656 205 205 205
0.0028439239 -0.52672815 -0.40515882 201 201 201
-0.30658597 -0.9922283 -0.067916036 133 133 133
-9.313226E-5 -0.94813436 -0.6726797 254 254 254
0.0054753125 -0.56084883 -0.13555549 147 147 147
0.008524947 -0.5481098 -0.17744757 155 155 155
0.14517266 -0.5707872 -0.280039 176 176 176
-0.17087974 -0.55963564 -0.14298455 148 148 148
0.15210281 -0.5590648 -0.27892768 175 175 175
-0.07008499 -0.5492457 -0.18199986 156 156 156
0.00949277 -0.5511724 -0.3922591 198 198 198
0.008392692 -0.4737047 -0.4055299 201 201 201
-0.061365783 -0.957577 0.122244105 95 95 95
-0.08619866 -0.95519185 0.088592574 102 102 102
0.02197811 -0.9508506 -0.65793663 251 251 251
0.0075015128 -0.5777919 -0.14357106 148 148 148
0.058272578 -0.4231987 -0.2210998 164 164 164
0.16116992 -0.5938429 -0.28899175 177 177 177
0.025845043 -0.5767963 -0.12650278 145 145 145
0.017729387 -0.58437365 -0.12857376 145 145 145
0.06491446 -0.41507196 -0.17636715 155 155 155
0.0595278 -0.41749695 -0.20369485 160 160 160
0.056647226 -0.42112502 -0.216198 163 163 163
0.06505369 -0.4199064 -0.21581611 163 163 163
0.05798281 -0.42281687 -0.2245414 164 164 164
