ply
format ascii 1.0
comment author: vikas
comment object: test
element vertex 1007
property float x
property float y
property float z
property uchar red
property uchar green
property uchar blue
end_header
-0.5151906 -1.2100055 -0.45667803 133 133 133
-0.42299998 -1.2095501 -0.33131 129 129 129
-0.47741446 -1.2115264 -0.3625091 130 130 130
-0.35796216 -1.1994101 -0.37394142 131 131 131
-0.059068754 -0.754662 -0.4826393 134 134 134
-0.41333085 -1.2106004 -0.36998284 131 131 131
-0.4834309 -1.2080947 -0.86216414 145 145 145
0.0864009 -0.7772383 -0.33060542 129 129 129
-0.0137423575 -0.77401555 -0.2728622 128 128 128
-0.56332356 -1.2110841 -0.4054113 132 132 132
-0.3508842 -1.2027588 -0.29001814 128 128 128
-0.48828834 -1.2174901 -0.42218763 132 132 132
-0.5901891 -1.2111094 -0.42356277 132 132 132
-0.30722713 -0.7786137 -0.52701235 135 135 135
-0.58905804 -1.2009015 -1.0374596 151 151 151
0.08368942 -0.75828475 -0.50086415 135 135 135
-0.3279553 -1.2071118 -0.32189232 129 129 129
-0.035009734 -0.623441 -0.5024631 135 135 135
-0.4681643 -1.2073903 -0.64577025 139 139 139
-0.61996305 -1.2138286 -1.0015776 150 150 150
0.020391017 -0.6400679 -0.5085248 135 135 135
0.13913192 -0.780171 -0.5107322 135 135 135
-0.27396068 -1.2044624 -0.29916292 128 128 128
0.0047976673 -0.63947713 -0.5051056 135 135 135
-0.5557315 -1.2113951 -0.80503076 144 144 144
-0.04801581 -0.7063438 -0.49213296 134 134 134
-0.15302156 -0.6284856 -0.54961395 136 136 136
-0.075158305 -0.59163713 -0.5216982 135 135 135
-0.19961372 -0.7778415 -0.5189626 135 135 135
-0.13984707 -0.6199725 -0.5489302 136 136 136
-0.17690587 -0.62407523 -0.5774719 137 137 137
-0.16884704 -0.6249288 -0.5975409 137 137 137
-0.14598995 -0.6280194 -0.58857965 137 137 137
-0.16528922 -0.6269034 -0.5918068 137 137 137
-0.15172634 -0.585251 -0.57864493 137 137 137
-0.16018242 -0.6307944 -0.5705991 137 137 137
-0.15480487 -0.6287799 -0.58924603 137 137 137
-0.46235755 -1.2093349 -1.1244559 153 153 153
-0.42025813 -1.2064891 -1.1471486 154 154 154
-0.51635563 -1.2244195 -0.38150623 131 131 131
-0.19284178 -0.62219226 -0.56519663 136 136 136
-0.17318001 -0.6305259 -0.58423233 137 137 137
-0.13430968 -0.713635 -0.7194505 141 141 141
-0.13346356 -0.69052356 -0.7251052 141 141 141
-0.54751825 -1.2079302 -1.2025058 156 156 156
-0.15324098 -0.69583285 -0.71244633 141 141 141
-0.5509051 -1.211556 -0.6426812 139 139 139
-0.43739608 -1.2111923 -0.8607317 145 145 145
-0.35735777 -1.2041482 -0.3798244 131 131 131
-0.1348958 -0.6643833 -0.73228025 141 141 141
-0.58090246 -1.2080488 -1.2905818 158 158 158
-0.622121 -1.2192134 -0.64878434 139 139 139
-0.5182237 -1.2069618 -1.1753427 155 155 155
-0.47701082 -1.223036 -0.7947942 143 143 143
-0.57662153 -1.2184448 -0.89837235 146 146 146
-0.5574616 -1.223812 -0.6656274 139 139 139
-0.62108934 -1.2109467 -0.81501883 144 144 144
-0.52305746 -1.2237501 -0.7020866 141 141 141
-0.6281365 -1.2132536 -0.524589 135 135 135
-0.568138 -1.205822 -0.6352873 139 139 139
-0.48659593 -1.2137294 -0.45060253 133 133 133
-0.37353873 -1.1940392 -0.40509063 132 132 132
-0.42857125 -1.2215006 -0.4342149 133 133 133
0.08206723 -0.6315793 -0.52322793 135 135 135
-0.0646881 -0.78912234 -0.4196817 132 132 132
-0.054257024 -0.78844583 -0.4155975 132 132 132
-0.0701201 -0.7890278 -0.41666037 132 132 132
-0.045840606 -0.7900159 -0.41673258 132 132 132
0.19064042 -0.7824811 -0.5357269 136 136 136
-0.020716975 -0.79337215 -0.48663074 134 134 134
-0.01801698 -0.79137355 -0.4889387 134 134 134
-0.010973383 -0.6680503 -0.50249505 135 135 135
0.14321426 -0.79140884 -0.5189095 135 135 135
-0.056362327 -0.76163775 -0.48596448 134 134 134
-0.18570462 -0.79291207 -0.46361554 133 133 133
-0.010752182 -0.6213208 -0.50793517 135 135 135
-0.07131916 -0.6857133 -0.49720845 134 134 134
-0.07200903 -0.65605044 -0.4974448 134 134 134
-0.049194526 -0.7341425 -0.4881652 134 134 134
-0.2996733 -0.78187805 -0.53087175 135 135 135
0.020333648 -0.65573347 -0.51052445 135 135 135
-0.016833216 -0.78801084 -0.38499728 131 131 131
-0.19038981 -0.7818865 -0.51926273 135 135 135
0.030003637 -0.7866927 -0.49123648 134 134 134
0.12502655 -0.74604666 -0.5136399 135 135 135
-0.35233128 -1.206568 -0.40331 132 132 132
-0.5156224 -1.2127626 -0.45881134 133 133 133
-0.4227496 -1.2108855 -0.33278483 129 129 129
-0.4771526 -1.2124255 -0.3640077 130 130 130
-0.35777497 -1.2018423 -0.37565827 131 131 131
-0.05754189 -0.75650424 -0.48462304 134 134 134
-0.41311026 -1.2121847 -0.3715748 131 131 131
-0.48388636 -1.2116244 -0.86616725 145 145 145
0.088387795 -0.77769077 -0.3319823 129 129 129
-0.010342635 -0.778227 -0.27449033 128 128 128
-0.56367916 -1.2165697 -0.40898842 132 132 132
-0.35037345 -1.2033365 -0.29184538 128 128 128
-0.48805407 -1.2209644 -0.4243937 132 132 132
-0.30698663 -0.78154737 -0.5298357 135 135 135
-0.58997315 -1.2044475 -1.042366 151 151 151
0.085294224 -0.75839716 -0.50203764 135 135 135
-0.32772854 -1.2156401 -0.32368052 129 129 129
-0.03202776 -0.6268018 -0.5053506 135 135 135
-0.61967534 -1.2157283 -1.0034982 150 150 150
0.023015738 -0.6421992 -0.51047903 135 135 135
0.14115793 -0.7812892 -0.5117849 135 135 135
-0.2736008 -1.2089565 -0.3002934 129 129 129
0.0069334954 -0.64239955 -0.50789845 135 135 135
-0.04634328 -0.70874166 -0.49447155 134 134 134
-0.151005 -0.63051605 -0.5520667 136 136 136
-0.07438447 -0.5905264 -0.5208604 135 135 135
0.19512227 -0.6678823 -0.56023014 136 136 136
-0.06728982 -0.7854926 -0.48703104 134 134 134
-0.19799012 -0.7813262 -0.5217682 135 135 135
-0.043490242 -0.61948663 -0.50677264 135 135 135
-0.13851756 -0.62133706 -0.5512149 136 136 136
-0.17591128 -0.62702405 -0.58097035 137 137 137
-0.16772982 -0.62729603 -0.600755 138 138 138
-0.14492813 -0.63317454 -0.5936295 137 137 137
-0.16414121 -0.629148 -0.59489137 137 137 137
-0.15039054 -0.58622175 -0.58086777 137 137 137
-0.15899293 -0.63280815 -0.573395 137 137 137
-0.15351915 -0.630035 -0.591618 137 137 137
-0.46385646 -1.2168682 -1.1328137 153 153 153
-0.41965052 -1.2073956 -1.1501899 154 154 154
-0.51528126 -1.222693 -0.38260463 131 131 131
-0.19099072 -0.6262496 -0.56871355 137 137 137
-0.17146087 -0.6331039 -0.58649087 137 137 137
-0.13208395 -0.7132356 -0.722034 141 141 141
-0.13134505 -0.6929275 -0.72842956 141 141 141
-0.059570752 -0.71458715 -0.5264111 135 135 135
-0.5468962 -1.211482 -1.2080274 156 156 156
-0.15106612 -0.69931805 -0.7161336 141 141 141
-0.42603907 -1.2214084 -1.2055993 156 156 156
-0.0689358 -0.67647153 -0.5017103 135 135 135
-0.5521615 -1.2204876 -0.6483426 139 139 139
-0.43703336 -1.2181888 -0.86786854 146 146 146
-0.35807088 -1.2108669 -0.3823076 131 131 131
-0.13351193 -0.6659112 -0.73534876 142 142 142
-0.62244844 -1.2220201 -0.6508874 139 139 139
-0.519757 -1.2133405 -1.183195 155 155 155
-0.14848164 -0.58109945 -0.58086634 137 137 137
-0.1661437 -0.6663353 -0.73668665 142 142 142
-0.5782593 -1.2236459 -0.90284485 147 147 147
-0.33509547 -1.1275885 -0.42750925 132 132 132
-0.5587761 -1.2303972 -0.6704215 140 140 140
-0.6225383 -1.2152884 -0.8193643 144 144 144
-0.5248765 -1.2306049 -0.70687914 141 141 141
-0.1516749 -0.7165018 -0.6960659 140 140 140
-0.33070588 -1.2219691 -0.28113106 128 128 128
-0.44556358 -1.2323809 -0.45439634 133 133 133
-0.4066156 -1.2168314 -0.46125454 133 133 133
-0.48552966 -1.2121139 -0.45167792 133 133 133
-0.42838916 -1.2236438 -0.43593782 133 133 133
-0.39837787 -1.2143588 -0.3190159 129 129 129
-0.33888647 -1.2158718 -0.27962413 128 128 128
-0.27434167 -1.2038414 -0.27006474 128 128 128
-0.33553648 -1.2059021 -0.31428394 129 129 129
-0.5014977 -1.2304838 -0.39687306 131 131 131
-0.5745262 -1.2376864 -0.6245653 138 138 138
-0.5200615 -1.2141528 -1.1788102 155 155 155
0.083888836 -0.6343935 -0.52444977 135 135 135
-0.06365089 -0.79020274 -0.4198717 132 132 132
-0.053213812 -0.78937095 -0.41572255 132 132 132
-0.069088645 -0.7898241 -0.41675794 132 132 132
-0.04479445 -0.7908312 -0.4168145 132 132 132
0.1919413 -0.78353184 -0.5357589 136 136 136
-0.019618638 -0.79409695 -0.48669618 134 134 134
-0.016934175 -0.79177916 -0.48886645 134 134 134
-0.0096524125 -0.6699349 -0.5031727 135 135 135
0.14450213 -0.7925718 -0.5190289 135 135 135
-0.055255644 -0.76238406 -0.48607284 134 134 134
-0.18521832 -0.79234415 -0.46353865 133 133 133
-0.009472876 -0.62218153 -0.5080825 135 135 135
-0.06950265 -0.6863087 -0.49729472 134 134 134
-0.070818625 -0.6568344 -0.49760163 134 134 134
-0.046958044 -0.73534405 -0.48833084 134 134 134
-0.29871827 -0.7813128 -0.5307386 135 135 135
0.02157115 -0.656974 -0.51091415 135 135 135
-0.015736759 -0.7895759 -0.38525146 131 131 131
-0.18943693 -0.7829717 -0.519692 135 135 135
0.12664029 -0.74830836 -0.5143168 135 135 135
-0.351453 -1.2137343 -0.4024136 132 132 132
-0.51537603 -1.2189718 -0.45910388 133 133 133
-0.42244303 -1.217358 -0.33105958 129 129 129
-0.47693652 -1.2178808 -0.36206102 130 130 130
-0.35675156 -1.2093632 -0.3757686 131 131 131
-0.05515757 -0.7591425 -0.4852304 134 134 134
-0.41263545 -1.218966 -0.37045717 131 131 131
-0.009087481 -0.78259784 -0.27497792 128 128 128
-0.5663339 -1.2243638 -0.41097993 132 132 132
-0.30566624 -0.7837429 -0.5306491 135 135 135
-0.58866996 -1.2039833 -1.0445393 151 151 151
0.08675256 -0.75853544 -0.502277 135 135 135
-0.32879674 -1.2234032 -0.3249259 129 129 129
-0.03078368 -0.62746453 -0.5054047 135 135 135
0.024506802 -0.6444721 -0.511387 135 135 135
0.14358443 -0.7865567 -0.51379985 135 135 135
0.00933289 -0.6451306 -0.5088789 135 135 135
-0.0445173 -0.71104413 -0.49499488 134 134 134
-0.14984313 -0.63132167 -0.55238426 136 136 136
0.21874118 -0.78562677 -0.53110844 135 135 135
-0.07313707 -0.59182215 -0.5213819 135 135 135
0.1979173 -0.6722159 -0.562337 136 136 136
-0.066209905 -0.7866667 -0.48733443 134 134 134
-0.1976112 -0.7855904 -0.5237239 135 135 135
-0.04144001 -0.61889756 -0.5081527 135 135 135
-0.13684006 -0.6215787 -0.55197674 136 136 136
-0.1742158 -0.6284917 -0.582206 137 137 137
-0.1657851 -0.62853676 -0.60245955 138 138 138
-0.1431411 -0.6354616 -0.59496474 137 137 137
-0.16240071 -0.6299751 -0.5959949 137 137 137
-0.14897233 -0.5874179 -0.5813581 137 137 137
-0.15734436 -0.6340566 -0.57428133 137 137 137
-0.15143573 -0.63462967 -0.5941513 137 137 137
-0.46198657 -1.2153118 -1.1354643 154 154 154
0.008645965 -0.6071643 -0.5450066 136 136 136
-0.5162273 -1.2344246 -0.38634306 131 131 131
-0.1899078 -0.62725765 -0.56923836 137 137 137
-0.17033492 -0.63408005 -0.58699167 137 137 137
-0.13090673 -0.7145238 -0.72287625 141 141 141
-0.12973917 -0.6902209 -0.7258884 141 141 141
-0.058451913 -0.7090181 -0.52320457 135 135 135
-0.14910252 -0.6943952 -0.7118594 141 141 141
-0.066821165 -0.6806588 -0.5030312 135 135 135
0.08955267 -0.6613539 -0.6843269 140 140 140
-0.552573 -1.223301 -0.6498986 139 139 139
-0.3603997 -1.2005497 -0.38584173 131 131 131
-0.13126294 -0.664925 -0.7369296 142 142 142
-0.07939161 -0.6075482 -0.53900266 136 136 136
-0.001947524 -0.7432953 -0.49993742 134 134 134
0.07601676 -0.6671109 -0.6877388 140 140 140
-0.62327015 -1.2252697 -0.65269595 139 139 139
0.06318751 -0.5988118 -0.7121621 141 141 141
-0.16758306 -0.72274345 -0.7290656 141 141 141
-0.51734984 -1.2121266 -1.1890726 155 155 155
-0.16521716 -0.6996088 -0.73411995 142 142 142
-0.14736299 -0.58193034 -0.58134353 137 137 137
-0.16502638 -0.66783386 -0.7378507 142 142 142
-0.33496922 -1.1296923 -0.42828012 132 132 132
-0.55844617 -1.2310815 -0.67124903 140 140 140
-0.6228133 -1.2194055 -0.82331574 144 144 144
-0.4456317 -1.2342997 -0.4552542 133 133 133
-0.40711045 -1.2257771 -0.4621411 133 133 133
-0.07811647 -0.60081047 -0.54245377 136 136 136
-0.15564142 -0.6803896 -0.5227924 135 135 135
-0.48644122 -1.2197084 -0.45182323 133 133 133
-0.3786925 -1.2254443 -0.41031432 132 132 132
-0.42967138 -1.2330534 -0.43895513 133 133 133
-0.14748316 -0.6327489 -0.58457273 137 137 137
-0.51094747 -1.2324418 -0.35810953 130 130 130
-0.10391833 -0.7799423 -0.7410451 142 142 142
-0.33914015 -1.2244413 -0.3168447 129 129 129
-0.44642803 -1.2260168 -0.49344254 134 134 134
-0.5738985 -1.2392119 -0.62678534 138 138 138
-0.16358334 -0.63341326 -0.5486655 136 136 136
-0.13661961 -0.6263426 -0.55778027 136 136 136
-0.16388448 -0.6317386 -0.5763195 137 137 137
-0.16088396 -0.6981348 -0.73401654 142 142 142
-0.16593994 -0.6562167 -0.5256689 135 135 135
-0.46190572 -1.2220517 -0.34888172 130 130 130
-0.6661198 -1.2141124 -0.8878903 146 146 146
-0.49324363 -1.2449981 -0.42777985 132 132 132
0.08461109 -0.6358702 -0.52501017 135 135 135
-0.062325336 -0.791228 -0.42034823 132 132 132
-0.05239793 -0.7902377 -0.41601562 132 132 132
-0.068160795 -0.79058087 -0.41751844 132 132 132
-0.044577274 -0.7914739 -0.4170196 132 132 132
0.19191194 -0.7844473 -0.53551626 136 136 136
-0.019224387 -0.7947969 -0.48690635 134 134 134
-0.016892817 -0.7923133 -0.4890473 134 134 134
-0.009108644 -0.6715381 -0.50375414 135 135 135
0.14576516 -0.79361117 -0.51912135 135 135 135
-0.05467594 -0.7628081 -0.48676568 134 134 134
-0.18504985 -0.7927227 -0.46404493 133 133 133
-0.00858573 -0.62321526 -0.50820816 135 135 135
-0.06935515 -0.6871017 -0.49788785 134 134 134
-0.070180655 -0.6573606 -0.49820393 134 134 134
-0.0468112 -0.73587203 -0.48879057 134 134 134
0.02217798 -0.658453 -0.5116727 135 135 135
-0.015368404 -0.7898396 -0.38607273 131 131 131
-0.18910658 -0.78376895 -0.5201911 135 135 135
0.12631626 -0.7478531 -0.5145399 135 135 135
-0.35028163 -1.2101319 -0.4023999 132 132 132
-0.4764848 -1.2173281 -0.36280084 130 130 130
-0.3560267 -1.2074239 -0.37616208 131 131 131
-0.055015747 -0.7596839 -0.4857117 134 134 134
-0.35225824 -1.2247481 -0.29341406 128 128 128
-0.5906832 -1.2092944 -1.0493053 151 151 151
0.08650562 -0.7568431 -0.5015916 135 135 135
-0.32886416 -1.2283059 -0.32573944 129 129 129
-0.030368447 -0.6281305 -0.50596386 135 135 135
-0.617583 -1.2138214 -1.0043333 150 150 150
0.025142644 -0.64482975 -0.51214796 135 135 135
0.14439076 -0.7885356 -0.5143487 135 135 135
0.009499465 -0.6456553 -0.50926393 135 135 135
-0.04438189 -0.71290535 -0.4961205 134 134 134
-0.14945997 -0.6317657 -0.55298215 136 136 136
0.22006091 -0.78846925 -0.5318515 135 135 135
-0.0724842 -0.59242123 -0.5222836 135 135 135
0.19893046 -0.67580885 -0.56280327 136 136 136
-0.0658119 -0.78581136 -0.48804945 134 134 134
-0.19695972 -0.7881418 -0.52518505 135 135 135
0.19415924 -0.6978526 -0.55421656 136 136 136
0.12710427 -0.6157407 -0.5372782 136 136 136
0.20222993 -0.6516917 -0.5699781 137 137 137
-0.041258156 -0.6188976 -0.5082352 135 135 135
-0.13673872 -0.62267476 -0.5528408 136 136 136
-0.17436643 -0.6305383 -0.5838236 137 137 137
-0.16582388 -0.63022566 -0.60385543 138 138 138
-0.14297237 -0.6362677 -0.5956634 137 137 137
-0.16254726 -0.6321744 -0.5977573 137 137 137
-0.15730113 -0.63538504 -0.5753462 137 137 137
-0.15127297 -0.63544387 -0.5948607 137 137 137
-0.46350458 -1.2209082 -1.1407684 154 154 154
0.008873251 -0.6081216 -0.54567945 136 136 136
-0.5152288 -1.2326155 -0.3868482 131 131 131
0.11561109 -0.61010575 -0.5822039 137 137 137
-0.18944964 -0.6281301 -0.5701252 137 137 137
-0.16997068 -0.634558 -0.5875659 137 137 137
-0.1299436 -0.71211606 -0.7231193 141 141 141
-0.128963 -0.6915947 -0.72726196 141 141 141
-0.058899995 -0.70628256 -0.52241874 135 135 135
-0.14893028 -0.6917052 -0.7109294 141 141 141
0.09056561 -0.6655774 -0.68788093 140 140 140
-0.55288124 -1.22581 -0.6510903 139 139 139
-0.35993302 -1.199596 -0.386402 131 131 131
-0.13145885 -0.6684874 -0.7403244 142 142 142
-0.07930819 -0.60780376 -0.5393423 136 136 136
-0.0019341446 -0.74417394 -0.5006812 135 135 135
0.074443825 -0.66432977 -0.68561167 140 140 140
-0.6227538 -1.2264171 -0.6553948 139 139 139
0.06435236 -0.6006612 -0.713615 141 141 141
-0.16764316 -0.72492945 -0.7310479 141 141 141
-0.5215328 -1.2235621 -1.1998657 155 155 155
-0.16490841 -0.6964119 -0.732559 141 141 141
-0.16423051 -0.66641295 -0.7379898 142 142 142
-0.33482736 -1.1337581 -0.43036717 132 132 132
-0.14992169 -0.72707653 -0.70490915 141 141 141
-0.33492556 -1.2440989 -0.28140974 128 128 128
-0.44405428 -1.2334006 -0.4574957 133 133 133
-0.40600386 -1.2230484 -0.46218485 133 133 133
-0.15556526 -0.68146646 -0.52361375 135 135 135
-0.4858918 -1.2190135 -0.45244443 133 133 133
-0.37872168 -1.2259713 -0.41136795 132 132 132
-0.42979026 -1.2338943 -0.4401132 133 133 133
-0.14742677 -0.633419 -0.58526933 137 137 137
-0.51247555 -1.2409366 -0.36018747 130 130 130
-0.4043652 -1.2438053 -0.32390222 129 129 129
-0.34409577 -1.2453661 -0.28229848 128 128 128
-0.15593255 -0.63196623 -0.54558516 136 136 136
-0.10298909 -0.7812177 -0.7427164 142 142 142
-0.33936512 -1.231337 -0.31884235 129 129 129
-0.505337 -1.2441399 -0.39943683 131 131 131
-0.44450808 -1.2213058 -0.49285638 134 134 134
-0.16356628 -0.63477105 -0.5497142 136 136 136
-0.1638327 -0.6329905 -0.57733816 137 137 137
-0.16090377 -0.7001681 -0.73591995 142 142 142
-0.16590892 -0.6574651 -0.52660614 135 135 135
-0.46034333 -1.2183738 -0.34912091 130 130 130
-0.25609082 -0.79042196 -0.49561602 134 134 134
-0.18402876 -0.6317651 -0.5565326 136 136 136
-0.14319712 -0.637065 -0.6007829 138 138 138
-0.6644213 -1.2115927 -0.888337 146 146 146
-0.49488562 -1.2523545 -0.42926985 132 132 132
0.08560201 -0.63759416 -0.5262764 135 135 135
-0.06174148 -0.79144233 -0.42063487 132 132 132
-0.051809814 -0.79040647 -0.41628098 132 132 132
-0.06759944 -0.79110885 -0.41792536 132 132 132
-0.04399576 -0.79178774 -0.4173349 132 132 132
0.19260593 -0.78522146 -0.53595275 136 136 136
-0.01864211 -0.7951862 -0.4872499 134 134 134
-0.01630735 -0.7924883 -0.48929033 134 134 134
-0.008381114 -0.67373276 -0.5052373 135 135 135
0.14632283 -0.7938716 -0.5193082 135 135 135
-0.054081324 -0.7633641 -0.48722985 134 134 134
-0.18433602 -0.7930159 -0.4641933 133 133 133
-0.007830102 -0.62360656 -0.50866324 135 135 135
-0.06837672 -0.68801975 -0.4977931 134 134 134
-0.06947925 -0.65771556 -0.49865115 134 134 134
-0.045834616 -0.7361667 -0.48921877 134 134 134
0.023020165 -0.65881425 -0.5119981 135 135 135
-0.01477889 -0.7907521 -0.38656926 131 131 131
-0.1885953 -0.78420395 -0.5206709 135 135 135
-0.35017 -1.2065071 -0.40279964 132 132 132
-0.47538683 -1.2154098 -0.36413217 130 130 130
-0.35548812 -1.2061905 -0.37667626 131 131 131
-0.054609686 -0.76005864 -0.48583713 134 134 134
-0.41256696 -1.2167709 -0.37002662 131 131 131
-0.35153145 -1.2227228 -0.2932808 128 128 128
-0.5903032 -1.2136911 -1.0516804 151 151 151
0.08669389 -0.75714785 -0.5017099 135 135 135
-0.3275071 -1.2237959 -0.32516265 129 129 129
-0.02966906 -0.63024044 -0.507528 135 135 135
-0.61778694 -1.2145158 -1.0051093 150 150 150
0.025918534 -0.6456981 -0.5128657 135 135 135
0.14537616 -0.79070693 -0.5155116 135 135 135
0.010415127 -0.6463949 -0.5097097 135 135 135
-0.043209907 -0.71555144 -0.49677324 134 134 134
-0.14886074 -0.6324902 -0.5537859 136 136 136
0.22091052 -0.7897188 -0.5325198 135 135 135
-0.07184909 -0.5939648 -0.52363575 135 135 135
0.20012525 -0.67763764 -0.5640567 136 136 136
-0.065132685 -0.78472656 -0.4877248 134 134 134
-0.1965868 -0.7890974 -0.5259413 135 135 135
0.19530982 -0.69951224 -0.5548762 136 136 136
0.12824768 -0.6160089 -0.53776807 136 136 136
0.20419578 -0.65404594 -0.5712527 137 137 137
-0.040444884 -0.6189199 -0.50860757 135 135 135
-0.13618901 -0.62384266 -0.55320126 136 136 136
-0.17350686 -0.6321519 -0.5845797 137 137 137
-0.16502677 -0.63191885 -0.60458577 138 138 138
-0.14208736 -0.6368365 -0.5961349 137 137 137
-0.1614763 -0.6334755 -0.59860975 137 137 137
-0.14902422 -0.5938309 -0.58476835 137 137 137
-0.15636507 -0.636856 -0.57604706 137 137 137
-0.15050754 -0.6364043 -0.5953517 137 137 137
-0.46306276 -1.2257153 -1.143982 154 154 154
0.0093426835 -0.6082798 -0.54580855 136 136 136
-0.51545286 -1.2302455 -0.38612983 131 131 131
0.21577924 -0.68614787 -0.55114746 136 136 136
0.11656796 -0.61123854 -0.58317 137 137 137
0.11462132 -0.6062709 -0.56703764 137 137 137
-0.18889976 -0.62885046 -0.5709792 137 137 137
-0.16884252 -0.63322496 -0.5868196 137 137 137
-0.12937886 -0.7128911 -0.7239738 141 141 141
-0.12857771 -0.69346213 -0.7291601 141 141 141
-0.14829452 -0.6921181 -0.7114955 141 141 141
0.09190751 -0.66756445 -0.68902034 140 140 140
0.09531973 -0.609165 -0.5374631 136 136 136
-0.5531384 -1.2266119 -0.6516682 139 139 139
-0.35888302 -1.1953858 -0.38682893 131 131 131
-0.13017666 -0.6676296 -0.74052393 142 142 142
-0.077505365 -0.60711265 -0.539917 136 136 136
-0.0016014209 -0.7423944 -0.5002946 135 135 135
0.06484421 -0.5990802 -0.71193707 141 141 141
-0.16637366 -0.72410935 -0.73116297 141 141 141
-0.52310365 -1.2297608 -1.2031935 156 156 156
0.105874546 -0.63970554 -0.68174577 140 140 140
-0.16453686 -0.6978973 -0.73413503 142 142 142
-0.16349165 -0.66646785 -0.7382473 142 142 142
-0.33401695 -1.132041 -0.42992783 132 132 132
0.1106047 -0.56152207 -0.70749986 141 141 141
0.084741704 -0.67428374 -0.69449294 140 140 140
-0.021999054 -0.66077334 -0.50833774 135 135 135
-0.00805773 -0.7779868 -0.49215037 134 134 134
-0.4438987 -1.2333661 -0.45750698 133 133 133
-0.4052446 -1.219321 -0.462065 133 133 133
-0.15490438 -0.68302613 -0.52426463 135 135 135
-0.48490968 -1.216832 -0.45269066 133 133 133
-0.378981 -1.2291085 -0.41197008 132 132 132
-0.43098363 -1.2393185 -0.44095367 133 133 133
-0.14708526 -0.6339467 -0.58550423 137 137 137
-0.045885872 -0.6121237 -0.5050955 135 135 135
-0.024973052 -0.66853976 -0.5053745 135 135 135
-0.048269644 -0.72364193 -0.5015089 135 135 135
-0.5122966 -1.2406782 -0.36031064 130 130 130
-0.40399516 -1.2430156 -0.3239164 129 129 129
-0.3428601 -1.2413504 -0.28194648 128 128 128
-0.15531829 -0.63259184 -0.54631686 136 136 136
-0.10252463 -0.7825544 -0.7439378 142 142 142
-0.33994606 -1.2339599 -0.31935373 129 129 129
-0.5059311 -1.2457633 -0.39996034 131 131 131
-0.4442989 -1.2200507 -0.49246207 134 134 134
-0.16267954 -0.6354446 -0.5503208 136 136 136
-0.15953007 -0.70065403 -0.73688287 142 142 142
-0.16527289 -0.6594649 -0.52735615 135 135 135
0.032237414 -0.57482743 -0.7411881 142 142 142
-0.45914248 -1.2138577 -0.34921652 130 130 130
-0.20987314 -0.8010748 -0.4782264 134 134 134
-0.25586942 -0.79155385 -0.4964542 134 134 134
-0.35126686 -1.2437251 -0.265621 127 127 127
-0.3276204 -1.2527171 -0.32949787 129 129 129
-0.18362322 -0.6329879 -0.5577277 136 136 136
-0.14252396 -0.63749355 -0.6013824 138 138 138
-0.6670466 -1.2164369 -0.89177907 146 146 146
-0.13511772 -0.69856256 -0.54506147 136 136 136
-0.4921621 -1.245781 -0.42787117 132 132 132
-0.29543963 -0.8095884 -0.52153826 135 135 135
-0.635515 -1.2355206 -0.8859656 146 146 146
0.087426946 -0.6390639 -0.5264002 135 135 135
-0.06085295 -0.79181814 -0.4196713 132 132 132
-0.050921645 -0.7908687 -0.41521707 132 132 132
-0.06660162 -0.7917472 -0.41693476 132 132 132
-0.042622346 -0.79235685 -0.41629726 132 132 132
0.19373684 -0.7862182 -0.5349758 136 136 136
-0.017661765 -0.7958418 -0.48621076 134 134 134
-0.015711654 -0.7929409 -0.48836458 134 134 134
-0.007201718 -0.67559314 -0.5052808 135 135 135
0.14683478 -0.7943527 -0.51849836 135 135 135
-0.052584846 -0.7636711 -0.48675427 134 134 134
-0.18356816 -0.79354715 -0.46457532 133 133 133
-0.0063178036 -0.6242505 -0.50791985 135 135 135
-0.06744832 -0.6885439 -0.49807847 134 134 134
-0.068023294 -0.65782416 -0.49837986 134 134 134
-0.044948462 -0.7368716 -0.4895708 134 134 134
0.02443019 -0.66171414 -0.51288515 135 135 135
-0.013925498 -0.79235727 -0.38567668 131 131 131
-0.1873266 -0.78508455 -0.5203803 135 135 135
0.13003056 -0.75348425 -0.5161663 135 135 135
-0.4761296 -1.2183233 -0.3652052 130 130 130
-0.35595307 -1.209305 -0.37772977 131 131 131
-0.053794477 -0.761381 -0.48651376 134 134 134
0.08773781 -0.75855035 -0.5023084 135 135 135
-0.028483741 -0.6311837 -0.5075194 135 135 135
-0.6161236 -1.2145356 -1.0059805 150 150 150
0.02707171 -0.64647967 -0.5128111 135 135 135
0.14627753 -0.7937497 -0.5153995 135 135 135
0.011428706 -0.6474518 -0.51027393 135 135 135
-0.042323455 -0.716606 -0.49733394 134 134 134
-0.14766702 -0.63285166 -0.5537891 136 136 136
0.2233151 -0.79327565 -0.5330595 135 135 135
-0.07012871 -0.5957158 -0.52412105 135 135 135
0.20232591 -0.6826362 -0.5650122 136 136 136
-0.06446141 -0.78549975 -0.4875097 134 134 134
-0.19585155 -0.7896825 -0.5258989 135 135 135
0.19710214 -0.7024796 -0.5565549 136 136 136
0.12940079 -0.6168764 -0.53811157 136 136 136
-0.039507523 -0.6203696 -0.5095251 135 135 135
-0.13527769 -0.62459636 -0.55378526 136 136 136
-0.17255276 -0.632676 -0.58504635 137 137 137
-0.16396251 -0.63212997 -0.6047855 138 138 138
-0.14103246 -0.63706416 -0.59632057 137 137 137
-0.16051672 -0.6340427 -0.5991059 137 137 137
-0.1552322 -0.63673717 -0.5759724 137 137 137
-0.14950974 -0.6368443 -0.5957248 137 137 137
0.010405054 -0.6091778 -0.5463302 136 136 136
-0.5160501 -1.2326155 -0.38716456 131 131 131
0.21725786 -0.68794686 -0.5520143 136 136 136
0.11831598 -0.6117326 -0.5831328 137 137 137
0.11623633 -0.6072347 -0.56720614 137 137 137
0.2072471 -0.6568721 -0.5704617 137 137 137
0.12682185 -0.6236687 -0.5392549 136 136 136
-0.1877963 -0.6289422 -0.5709297 137 137 137
-0.16730696 -0.6336505 -0.58710074 137 137 137
-0.12769844 -0.71240324 -0.72393095 141 141 141
-0.12655255 -0.69458836 -0.7301858 141 141 141
-0.057665188 -0.6965165 -0.51839733 135 135 135
-0.1469338 -0.6911491 -0.711226 141 141 141
0.093123496 -0.6686749 -0.6897457 140 140 140
-0.5541013 -1.2296532 -0.65207916 139 139 139
-0.12904213 -0.66782415 -0.74066925 142 142 142
-0.07644266 -0.6072192 -0.53987837 136 136 136
-6.8712793E-4 -0.7426183 -0.50029004 135 135 135
0.079918236 -0.67610645 -0.6900208 140 140 140
0.06622482 -0.5980238 -0.7112735 141 141 141
-0.5206411 -1.226445 -1.2006706 156 156 156
0.1071956 -0.6411561 -0.6828073 140 140 140
-0.16240074 -0.69760925 -0.7344762 142 142 142
0.063246705 -0.7347529 -0.5055471 135 135 135
-0.3333877 -1.137157 -0.43169028 132 132 132
0.11165847 -0.56132257 -0.70680124 141 141 141
0.085719734 -0.6738566 -0.6937726 140 140 140
-0.02084944 -0.6612318 -0.50829285 135 135 135
-0.007678218 -0.77910787 -0.4920349 134 134 134
0.113286704 -0.60590994 -0.55502164 136 136 136
0.08217217 -0.6645328 -0.5228428 135 135 135
-0.44576862 -1.2406024 -0.4589047 133 133 133
0.019540735 -0.6436652 -0.51382726 135 135 135
-0.40650725 -1.224463 -0.46397746 133 133 133
-0.154363 -0.6849947 -0.5256016 135 135 135
0.046909694 -0.64479476 -0.5175383 135 135 135
-0.48573494 -1.2200156 -0.45407617 133 133 133
-0.3788619 -1.2302221 -0.4126019 132 132 132
-0.42983142 -1.2375175 -0.44084486 133 133 133
-0.14610279 -0.63439494 -0.5858423 137 137 137
-0.044886827 -0.6125684 -0.5052736 135 135 135
-0.024022471 -0.66934466 -0.50576276 135 135 135
-0.04733056 -0.7237428 -0.50147676 135 135 135
-0.1539723 -0.6325418 -0.5464413 136 136 136
-0.10093717 -0.7826838 -0.744322 142 142 142
0.04370091 -0.65625423 -0.51626503 135 135 135
0.06071506 -0.6658381 -0.5190957 135 135 135
-0.5067537 -1.2482662 -0.3997583 131 131 131
-0.4439722 -1.2206293 -0.49309257 134 134 134
-0.15781055 -0.6983665 -0.7346524 142 142 142
-0.16415873 -0.65924454 -0.5272587 135 135 135
0.03345865 -0.5754315 -0.741576 142 142 142
-0.20900121 -0.80323076 -0.47877523 134 134 134
-0.25599083 -0.7915916 -0.49605635 134 134 134
-0.18242611 -0.6325998 -0.5576519 136 136 136
-0.14126922 -0.6371947 -0.60127664 138 138 138
-0.6666903 -1.2179415 -0.8932938 146 146 146
-0.13447492 -0.6981764 -0.5446684 136 136 136
-0.14315511 -0.7133247 -0.7166305 141 141 141
0.08790977 -0.64090025 -0.52778673 135 135 135
-0.060676705 -0.7923224 -0.4201212 132 132 132
-0.05077677 -0.79178613 -0.4158416 132 132 132
-0.06646839 -0.7926652 -0.41756764 132 132 132
-0.0424763 -0.7933337 -0.41694534 132 132 132
0.19415893 -0.787559 -0.5358528 136 136 136
-0.017492432 -0.79684895 -0.48693407 134 134 134
-0.015537713 -0.79390633 -0.48906714 134 134 134
0.14706981 -0.7950578 -0.51900226 135 135 135
-0.05241288 -0.7644879 -0.48739266 134 134 134
-0.18343051 -0.7946925 -0.46444753 133 133 133
-0.006037619 -0.6249711 -0.50849944 135 135 135
-0.06663117 -0.6898104 -0.4982467 134 134 134
-0.06782903 -0.65879416 -0.49915183 134 134 134
-0.044480618 -0.73825175 -0.48977122 134 134 134
0.024671707 -0.662848 -0.51378375 135 135 135
-0.01381021 -0.79516697 -0.38700607 131 131 131
-0.1871997 -0.7856959 -0.5209897 135 135 135
-0.3502227 -1.2123696 -0.40459326 132 132 132
-0.47768995 -1.2217728 -0.36510685 130 130 130
-0.35696337 -1.2121736 -0.3781813 131 131 131
-0.053934354 -0.7631349 -0.48680654 134 134 134
-0.3509577 -1.2219748 -0.29360873 128 128 128
-0.5899501 -1.2166504 -1.054139 151 151 151
0.08846202 -0.7602177 -0.50325185 135 135 135
-0.028240439 -0.63223404 -0.50835204 135 135 135
-0.61617523 -1.2147002 -1.0068136 150 150 150
0.027406331 -0.6484963 -0.514312 135 135 135
0.012252737 -0.6492659 -0.51124877 135 135 135
-0.041948806 -0.7164538 -0.49787223 134 134 134
-0.1475071 -0.6336613 -0.55456054 136 136 136
0.22352242 -0.7938364 -0.53344715 136 136 136
0.2034896 -0.68589187 -0.5674592 137 137 137
-0.06414968 -0.78473043 -0.4872917 134 134 134
-0.19570038 -0.79018766 -0.5264531 135 135 135
0.282622 -0.8076289 -0.48729607 134 134 134
0.19885483 -0.70642614 -0.55839723 136 136 136
0.13033363 -0.6175689 -0.5388645 136 136 136
0.20840955 -0.66364795 -0.57648885 137 137 137
-0.038621936 -0.623213 -0.5107448 135 135 135
-0.13472395 -0.62639755 -0.55454004 136 136 136
-0.17156218 -0.6339805 -0.5860051 137 137 137
-0.1633947 -0.63345444 -0.6054047 138 138 138
-0.14036122 -0.63809156 -0.596883 137 137 137
-0.15968455 -0.6359039 -0.60004 138 138 138
-0.15455316 -0.6374581 -0.57649213 137 137 137
0.010634119 -0.6091654 -0.5465813 136 136 136
-0.5176961 -1.2354978 -0.38741353 131 131 131
0.2192278 -0.690992 -0.5535559 136 136 136
0.118898645 -0.6135066 -0.5846573 137 137 137
0.11684176 -0.60912985 -0.5688021 137 137 137
0.20873044 -0.6608134 -0.5735767 137 137 137
0.12702146 -0.6237331 -0.5392585 136 136 136
-0.18790424 -0.630399 -0.5723 137 137 137
-0.16759044 -0.6358121 -0.58910805 137 137 137
-0.12766111 -0.713783 -0.7254126 141 141 141
-0.12632895 -0.69513565 -0.7308532 141 141 141
-0.057056498 -0.69341975 -0.51643693 135 135 135
-0.14741553 -0.6944636 -0.71465546 141 141 141
0.094915815 -0.6706247 -0.69127667 140 140 140
0.20325053 -0.7221823 -0.54987097 136 136 136
-0.36310703 -1.2132931 -0.39060944 131 131 131
-0.12841406 -0.6687097 -0.7411343 142 142 142
3.3107027E-4 -0.74913245 -0.50342584 135 135 135
0.080973536 -0.68275857 -0.6965495 140 140 140
0.066962995 -0.60196626 -0.71580094 141 141 141
-0.5231028 -1.2351211 -1.2047644 156 156 156
0.109752595 -0.6447469 -0.6855328 140 140 140
0.20811823 -0.56507784 -0.6384946 139 139 139
-0.1622205 -0.6982459 -0.73526245 142 142 142
0.06366855 -0.73744416 -0.5072962 135 135 135
-0.16033053 -0.666074 -0.73899394 142 142 142
-0.3318002 -1.1327415 -0.43091673 132 132 132
0.20620161 -0.6912243 -0.5689773 137 137 137
0.11334476 -0.56255287 -0.70789486 141 141 141
0.108746916 -0.8001121 -0.5091198 135 135 135
0.086258516 -0.6744313 -0.6940086 140 140 140
-0.3315091 -1.2360132 -0.280997 128 128 128
-0.020587798 -0.6617473 -0.5087345 135 135 135
-0.0075282604 -0.78207284 -0.49384874 134 134 134
0.11394161 -0.6080865 -0.5568267 136 136 136
0.08284317 -0.668074 -0.52540827 135 135 135
-0.44507983 -1.2390975 -0.4591644 133 133 133
0.01979772 -0.64548576 -0.515253 135 135 135
-0.40770182 -1.2291545 -0.4651739 133 133 133
-0.15374371 -0.68929505 -0.5273928 135 135 135
0.04784108 -0.6458766 -0.51852185 135 135 135
0.089181945 -0.74945533 -0.5133943 135 135 135
-0.48666087 -1.2239388 -0.4553529 133 133 133
-0.37889904 -1.2278954 -0.41231057 132 132 132
-0.42704687 -1.2308753 -0.44063294 133 133 133
-0.14605325 -0.6362308 -0.58736235 137 137 137
-0.044397805 -0.6150898 -0.50674635 135 135 135
-0.023441266 -0.6715335 -0.5070729 135 135 135
-0.047112565 -0.72270906 -0.50119454 135 135 135
-0.4036084 -1.2417219 -0.3231801 129 129 129
-0.34093207 -1.2372345 -0.28163424 128 128 128
0.18046425 -0.7977732 -0.5354587 136 136 136
-0.15404591 -0.6341334 -0.5478366 136 136 136
-0.1009202 -0.7843746 -0.7460245 142 142 142
0.044104427 -0.6587182 -0.5180716 135 135 135
0.1077002 -0.70857084 -0.52938384 135 135 135
0.06110604 -0.6676281 -0.5204044 135 135 135
-0.34031773 -1.2351741 -0.31830892 129 129 129
-0.50401515 -1.2421235 -0.39880842 131 131 131
-0.44460577 -1.2237686 -0.4943735 134 134 134
0.18896219 -0.6149298 -0.642264 139 139 139
0.01342427 -0.66331744 -0.5128857 135 135 135
-0.15477648 -0.6971916 -0.7353137 142 142 142
-0.16374849 -0.6597174 -0.527695 135 135 135
0.034964517 -0.5766847 -0.7426845 142 142 142
0.062404215 -0.65468884 -0.5209842 135 135 135
3.2539293E-4 -0.6740958 -0.5123696 135 135 135
0.041649316 -0.6722558 -0.518579 135 135 135
-0.46333954 -1.2261877 -0.35161978 130 130 130
-0.20832807 -0.8019398 -0.4783844 134 134 134
-0.34994972 -1.2413558 -0.26552334 127 127 127
-0.32572818 -1.2439305 -0.327368 129 129 129
-0.1828976 -0.63515365 -0.55988634 136 136 136
-0.14072296 -0.6365751 -0.6008168 138 138 138
-0.6646428 -1.2145371 -0.891628 146 146 146
-0.025483672 -0.7961373 -0.49341035 134 134 134
0.017045429 -0.68195546 -0.5105969 135 135 135
-0.13427238 -0.6987484 -0.5452346 136 136 136
-0.0161709 -0.6705076 -0.50857455 135 135 135
0.1346949 -0.5953912 -0.6851433 140 140 140
-0.13579781 -0.62836957 -0.5516507 136 136 136
-0.63556653 -1.2363734 -0.88778627 146 146 146
-0.14247918 -0.71248084 -0.71612936 141 141 141
-0.31000215 -1.2286019 -0.30934542 129 129 129
-0.30732012 -1.2261817 -0.3364185 130 130 130
-0.15749097 -0.7456993 -0.53121096 135 135 135
-0.29841676 -0.80598277 -0.52628815 135 135 135
-0.60404813 -1.2336184 -0.8654781 145 145 145
-0.61755824 -1.201863 -0.9805976 149 149 149
0.089505635 -0.6439421 -0.52923214 135 135 135
-0.059268214 -0.79294544 -0.42013144 132 132 132
-0.048521593 -0.79291916 -0.41588736 132 132 132
-0.064724706 -0.79375535 -0.41765586 132 132 132
-0.040275246 -0.7943298 -0.41707298 132 132 132
0.19568479 -0.78888214 -0.5356885 136 136 136
-0.015965402 -0.7981554 -0.48660484 134 134 134
-0.014094047 -0.7947341 -0.4890598 134 134 134
0.14813417 -0.7955207 -0.51896024 135 135 135
-0.05090166 -0.7657679 -0.48738798 134 134 134
-0.18308178 -0.7950901 -0.464905 133 133 133
-0.004192792 -0.6269943 -0.508263 135 135 135
-0.066184394 -0.69022447 -0.49872783 134 134 134
-0.06647817 -0.65992707 -0.49940693 134 134 134
-0.044104047 -0.7393252 -0.49064365 134 134 134
0.02635824 -0.6663314 -0.5165913 135 135 135
-0.011976965 -0.797433 -0.38770005 131 131 131
-0.18657303 -0.7866201 -0.52139014 135 135 135
-0.3509931 -1.2155949 -0.40585795 132 132 132
-0.47872716 -1.2247444 -0.36621118 130 130 130
-0.3570573 -1.2133479 -0.37882486 131 131 131
-0.053641863 -0.76475525 -0.48798734 134 134 134
-0.34927973 -1.2238042 -0.29473075 128 128 128
-0.58943343 -1.2162645 -1.0542971 151 151 151
0.08920954 -0.76309395 -0.50522715 135 135 135
-0.6158152 -1.2175533 -1.0101179 150 150 150
0.028997425 -0.65017956 -0.5158091 135 135 135
0.012724981 -0.6513677 -0.51303524 135 135 135
-0.041622162 -0.71806675 -0.49913982 134 134 134
-0.14698023 -0.6356443 -0.55555135 136 136 136
0.22522134 -0.7963894 -0.5346796 136 136 136
0.20594183 -0.6894148 -0.5696271 137 137 137
-0.06318032 -0.7849715 -0.4881387 134 134 134
-0.19536558 -0.7921511 -0.5275278 135 135 135
0.28470877 -0.81226724 -0.49003816 134 134 134
0.20040575 -0.71022755 -0.56146014 136 136 136
0.13144298 -0.62052757 -0.5415582 136 136 136
-0.038396485 -0.6257571 -0.51298344 135 135 135
-0.13475776 -0.6282813 -0.55642784 136 136 136
-0.17136085 -0.6348795 -0.5870758 137 137 137
-0.16318733 -0.6343811 -0.6065344 138 138 138
-0.14010543 -0.63899887 -0.59796196 137 137 137
-0.15937364 -0.6365493 -0.6008847 138 138 138
-0.15449736 -0.6388874 -0.5780182 137 137 137
-0.5170864 -1.2347893 -0.3875921 131 131 131
0.2194224 -0.69011897 -0.552956 136 136 136
0.120615706 -0.61578864 -0.5864098 137 137 137
0.1181992 -0.61143047 -0.5702781 137 137 137
0.2108584 -0.66483754 -0.5757227 137 137 137
0.12815931 -0.6243085 -0.54002506 136 136 136
-0.18745911 -0.6327829 -0.57344365 137 137 137
-0.16658282 -0.63985276 -0.59156424 137 137 137
-0.12666458 -0.7161543 -0.7276069 141 141 141
-0.12590429 -0.6963517 -0.7317196 141 141 141
-0.05572488 -0.68960124 -0.51735526 135 135 135
-0.14616963 -0.6989615 -0.71831876 141 141 141
0.09563069 -0.672233 -0.69310683 140 140 140
0.20344704 -0.7205784 -0.5488104 136 136 136
-0.36489078 -1.2193373 -0.39261368 131 131 131
-0.1284579 -0.67085797 -0.7438363 142 142 142
-0.07365414 -0.61013 -0.54401076 136 136 136
9.653121E-4 -0.7483628 -0.5031488 135 135 135
-0.16024482 -0.69903207 -0.7382242 142 142 142
0.06489416 -0.7400292 -0.5085319 135 135 135
-0.15941536 -0.6686149 -0.74145186 142 142 142
-0.33140373 -1.1288084 -0.42894354 132 132 132
0.2072509 -0.6927645 -0.5704505 137 137 137
0.1255084 -0.79801315 -0.32412094 129 129 129
0.10958275 -0.8033013 -0.51120675 135 135 135
0.08677736 -0.6743784 -0.6940842 140 140 140
0.67400604 -1.2075142 -0.64265484 139 139 139
0.2370252 -0.70206887 -0.5577461 136 136 136
-0.3287343 -1.2330883 -0.28256497 128 128 128
-0.01984407 -0.66362906 -0.50968945 135 135 135
0.11568873 -0.6111887 -0.5590532 136 136 136
0.083689146 -0.66958696 -0.5261887 135 135 135
-0.4434839 -1.2324729 -0.4572636 133 133 133
0.021362066 -0.65016115 -0.51888233 135 135 135
-0.407929 -1.2305397 -0.465995 133 133 133
-0.15382838 -0.69126844 -0.5290963 135 135 135
0.048458204 -0.6482662 -0.52056056 135 135 135
0.089892425 -0.75182813 -0.51510954 135 135 135
-0.48656583 -1.224364 -0.45586213 133 133 133
-0.37867028 -1.2282568 -0.41275403 132 132 132
-0.42591804 -1.2289897 -0.44036272 133 133 133
-0.023020126 -0.67317224 -0.50857294 135 135 135
-0.04664623 -0.7235544 -0.5020319 135 135 135
0.6642474 -1.211627 -0.62289256 138 138 138
-0.4012646 -1.238439 -0.32382625 129 129 129
-0.33917376 -1.236264 -0.28250238 128 128 128
0.1817026 -0.79990184 -0.53660625 136 136 136
-0.1533426 -0.6365252 -0.54991835 136 136 136
-0.1000916 -0.78586173 -0.7475763 142 142 142
0.04504396 -0.66066957 -0.51917374 135 135 135
0.10815025 -0.70941496 -0.5294761 135 135 135
0.062290367 -0.6705505 -0.5218906 135 135 135
-0.33792362 -1.2348886 -0.32001045 129 129 129
-0.50140405 -1.2373828 -0.39889672 131 131 131
-0.44537222 -1.2263328 -0.495675 134 134 134
0.21629727 -0.80172026 -0.5364793 136 136 136
0.19035476 -0.6177353 -0.6453611 139 139 139
0.013951227 -0.66291255 -0.5127381 135 135 135
-0.1541822 -0.6969542 -0.7352997 142 142 142
0.035551004 -0.57775843 -0.7442966 142 142 142
0.063101694 -0.6574517 -0.5232928 135 135 135
7.54036E-4 -0.67608505 -0.5140152 135 135 135
-0.4631998 -1.2265238 -0.35205275 130 130 130
-0.20809323 -0.80592513 -0.4800544 134 134 134
-0.34780565 -1.23824 -0.26608258 127 127 127
-0.32273224 -1.239029 -0.3284169 129 129 129
0.17181516 -0.7991575 -0.5546175 136 136 136
0.21417558 -0.7067513 -0.5577536 136 136 136
-0.18248254 -0.6379008 -0.5617872 136 136 136
-0.14026278 -0.6376917 -0.60182464 138 138 138
-0.66475946 -1.2152104 -0.8925936 146 146 146
-0.024822429 -0.8002231 -0.49491012 134 134 134
0.01788164 -0.6839639 -0.5117212 135 135 135
0.0864946 -0.6530155 -0.5272087 135 135 135
0.13409369 -0.6775433 -0.5349694 136 136 136
-0.015213884 -0.6747504 -0.5118016 135 135 135
0.13763578 -0.60325855 -0.6928225 140 140 140
0.034958746 -0.8028713 -0.49929127 134 134 134
0.12680636 -0.6098468 -0.5889102 137 137 137
-0.13585094 -0.6303088 -0.55357134 136 136 136
-0.63512003 -1.2360787 -0.8880562 146 146 146
0.08072945 -0.794492 -0.5078496 135 135 135
0.07265054 -0.67528737 -0.5267584 135 135 135
0.010779619 -0.68252516 -0.5155277 135 135 135
-0.14236513 -0.7139601 -0.71788806 141 141 141
0.06782762 -0.64444715 -0.5246323 135 135 135
-0.30956706 -1.2281444 -0.3095743 129 129 129
-0.15751106 -0.74751985 -0.5327002 135 135 135
0.11067537 -0.7101569 -0.527433 135 135 135
-0.29965532 -0.80959785 -0.5289609 135 135 135
-0.42456245 -1.2277247 -0.4423617 133 133 133
-0.031208254 -0.6630233 -0.5084523 135 135 135
-0.602657 -1.2319167 -0.865899 145 145 145
-0.12808317 -0.68486005 -0.7217235 141 141 141
-0.1838749 -0.67496806 -0.54199654 136 136 136
0.1467208 -0.5658575 -0.6877918 140 140 140
0.1389108 -0.5928436 -0.68932617 140 140 140
0.029451098 -0.58985776 -0.7506113 142 142 142
-0.09574448 -0.75976807 -0.74823725 142 142 142
-0.6203929 -1.2083287 -0.9852947 149 149 149
-0.29085684 -1.236572 -0.36303705 130 130 130
-0.30939782 -0.819994 -0.4204929 132 132 132
0.089802764 -0.6442843 -0.5299688 135 135 135
-0.059135713 -0.79304415 -0.42065215 132 132 132
-0.048385613 -0.7930187 -0.4163996 132 132 132
-0.064590134 -0.79382163 -0.4181615 132 132 132
-0.040115766 -0.7942921 -0.4175108 132 132 132
0.19600773 -0.7892117 -0.5362825 136 136 136
-0.015803516 -0.7983822 -0.48721933 134 134 134
-0.013927199 -0.79494035 -0.48966318 134 134 134
0.1484269 -0.79592854 -0.51961833 135 135 135
-0.050769754 -0.7660718 -0.48808134 134 134 134
-0.18181801 -0.79616445 -0.46523583 133 133 133
-0.003958255 -0.62702674 -0.5087868 135 135 135
-0.06554938 -0.690237 -0.49921513 134 134 134
-0.066251285 -0.6598083 -0.4998402 134 134 134
-0.04262664 -0.74000686 -0.49195933 134 134 134
0.02664502 -0.66596544 -0.516903 135 135 135
-0.011945106 -0.79862404 -0.38868433 131 131 131
-0.18681741 -0.7876738 -0.5226976 135 135 135
-0.3512059 -1.2188051 -0.40687442 132 132 132
-0.47915912 -1.229954 -0.3674667 131 131 131
-0.35718757 -1.2192798 -0.3800401 131 131 131
-0.052810706 -0.765949 -0.48896563 134 134 134
-0.35002455 -1.2256777 -0.29574406 128 128 128
-0.58829474 -1.2117336 -1.0527921 151 151 151
0.091026165 -0.7658448 -0.5070935 135 135 135
0.029247925 -0.65016043 -0.51626766 135 135 135
0.01346115 -0.65209395 -0.5139774 135 135 135
-0.041128196 -0.7197157 -0.4996302 134 134 134
0.22545074 -0.79626805 -0.53494537 136 136 136
0.20612742 -0.6889175 -0.56957805 137 137 137
-0.19624141 -0.79488647 -0.5299806 135 135 135
0.28604296 -0.81430334 -0.4913516 134 134 134
0.20130871 -0.71193457 -0.5620571 136 136 136
0.13224733 -0.6212466 -0.54237443 136 136 136
-0.03757029 -0.6265248 -0.5143661 135 135 135
-0.13416526 -0.62809217 -0.5576248 136 136 136
-0.17109156 -0.63388807 -0.5869248 137 137 137
-0.16299513 -0.63274807 -0.60600334 138 138 138
-0.1397486 -0.63765454 -0.59812254 137 137 137
-0.15925461 -0.6349313 -0.600276 138 138 138
-0.15411451 -0.63785636 -0.5782845 137 137 137
0.24289396 -0.70633996 -0.56280977 136 136 136
0.011733316 -0.6116663 -0.550234 136 136 136
-0.51763874 -1.237622 -0.38875067 131 131 131
0.21909088 -0.688926 -0.5525736 136 136 136
0.12087008 -0.6152276 -0.5863003 137 137 137
0.118475854 -0.6110968 -0.5704001 137 137 137
0.21116248 -0.6647693 -0.57604253 137 137 137
0.12845422 -0.6242597 -0.540406 136 136 136
-0.18672293 -0.63153875 -0.5729167 137 137 137
-0.16588172 -0.6386051 -0.5910043 137 137 137
-0.1258992 -0.71441936 -0.72644114 141 141 141
-0.1253435 -0.69533396 -0.73129654 141 141 141
-0.054916404 -0.6865123 -0.515492 135 135 135
-0.14490744 -0.69595844 -0.7157484 141 141 141
0.095414996 -0.67031676 -0.6922896 140 140 140
0.20217592 -0.7167148 -0.5456722 136 136 136
-0.36623237 -1.2285962 -0.39473176 131 131 131
-0.12833199 -0.6670913 -0.7420646 142 142 142
-0.073182486 -0.6110652 -0.54716307 136 136 136
0.0014846623 -0.74987054 -0.5041209 135 135 135
0.06891711 -0.60509515 -0.7185952 141 141 141
0.11137779 -0.64688337 -0.68977666 140 140 140
-0.15853384 -0.69499856 -0.734415 142 142 142
0.065148614 -0.7421975 -0.5104843 135 135 135
-0.15823781 -0.6661612 -0.739283 142 142 142
-0.33102188 -1.1279788 -0.42945576 132 132 132
0.20753703 -0.6930307 -0.57006615 137 137 137
0.12791333 -0.80550385 -0.32554168 129 129 129
0.11046321 -0.80519223 -0.5124348 135 135 135
0.08403207 -0.67256516 -0.69013494 140 140 140
-0.14515442 -0.6854239 -0.54607904 136 136 136
-0.33009318 -1.2368839 -0.2839174 128 128 128
-0.019680806 -0.66406286 -0.51053566 135 135 135
0.11614548 -0.6125329 -0.5608106 136 136 136
-0.44453418 -1.2348099 -0.458979 133 133 133
-0.40796024 -1.2326751 -0.46711898 134 134 134
0.049306974 -0.64915955 -0.52187544 135 135 135
0.09065682 -0.7531958 -0.51609445 135 135 135
-0.48692912 -1.2257106 -0.45645958 133 133 133
-0.42741048 -1.2354462 -0.44348252 133 133 133
-0.14586803 -0.63857985 -0.5912145 137 137 137
-0.043633096 -0.6188101 -0.5113389 135 135 135
-0.022617303 -0.675101 -0.5101267 135 135 135
-0.04637175 -0.72490495 -0.5028671 135 135 135
-0.40271086 -1.2418394 -0.32527286 129 129 129
-0.3408294 -1.2408109 -0.28400448 128 128 128
0.1825139 -0.8030847 -0.53914255 136 136 136
-0.15272933 -0.6354162 -0.54953396 136 136 136
-0.09926426 -0.783384 -0.7457799 142 142 142
0.04529031 -0.66096884 -0.5198821 135 135 135
0.10834216 -0.7085297 -0.52921915 135 135 135
0.06254814 -0.67046183 -0.5222717 135 135 135
-0.33862978 -1.2367504 -0.32106358 129 129 129
-0.4460771 -1.2307768 -0.4977789 134 134 134
0.21715434 -0.80296016 -0.53746474 136 136 136
0.22788256 -0.8115884 -0.5526025 136 136 136
0.014422841 -0.66237307 -0.51349956 135 135 135
-0.15394026 -0.69336647 -0.7332319 141 141 141
0.035884835 -0.5765025 -0.7440951 142 142 142
0.06398187 -0.6582999 -0.5246923 135 135 135
0.0010674074 -0.6760722 -0.51434636 135 135 135
-0.4647748 -1.2314332 -0.3526913 130 130 130
-0.20610142 -0.80093944 -0.47768635 134 134 134
-0.34745184 -1.2370231 -0.2664808 127 127 127
-0.2747766 -1.2378132 -0.25477552 127 127 127
-0.32369456 -1.2417593 -0.3296817 129 129 129
0.1720647 -0.79910696 -0.5549727 136 136 136
0.21416946 -0.70555615 -0.55714315 136 136 136
-0.18144456 -0.63594836 -0.56062466 136 136 136
-0.13968933 -0.63668144 -0.60146457 138 138 138
-0.6640205 -1.2140412 -0.8928041 146 146 146
0.01812762 -0.68381 -0.5120772 135 135 135
0.08680219 -0.6537067 -0.52823263 135 135 135
0.13441998 -0.6779517 -0.53584844 136 136 136
-0.014791071 -0.6735958 -0.51152474 135 135 135
0.03551404 -0.8045377 -0.5004396 135 135 135
0.25656202 -0.43041712 -0.60439956 138 138 138
0.12841022 -0.61374587 -0.59119076 137 137 137
-0.13542974 -0.62905073 -0.5538431 136 136 136
-0.6315947 -1.2275164 -0.88427186 146 146 146
0.08105019 -0.7951579 -0.5083129 135 135 135
0.07307021 -0.6757772 -0.52722645 135 135 135
0.011029609 -0.6826779 -0.51565665 135 135 135
-0.14158669 -0.712643 -0.7186088 141 141 141
0.06858048 -0.6445558 -0.5259452 135 135 135
-0.31123868 -1.2352026 -0.30998993 129 129 129
-0.15711296 -0.7465083 -0.5329618 135 135 135
0.11141239 -0.71106416 -0.52861047 135 135 135
-0.2998101 -0.8113597 -0.5299353 135 135 135
-0.42713463 -1.233629 -0.44507444 133 133 133
0.11579735 -0.60603964 -0.58218426 137 137 137
-0.030978926 -0.66295856 -0.508909 135 135 135
0.093624145 -0.6657995 -0.528974 135 135 135
-0.12804303 -0.68547845 -0.72314286 141 141 141
-0.18405029 -0.6757362 -0.5432694 136 136 136
0.07976567 -0.6454306 -0.52967566 135 135 135
-0.09502577 -0.7578075 -0.74688345 142 142 142
-0.4060318 -1.2453425 -0.38186598 131 131 131
-0.61504436 -1.1996634 -0.9791754 149 149 149
-0.29217967 -1.2407892 -0.36477578 130 130 130
