ply
format ascii 1.0
comment author: Greg Turk
comment object: another cube
element vertex 1040
property float x
property float y
property float z
property uchar red
property uchar green
property uchar blue
end_header
0.31327906 -0.5749124 -0.33467272 85 85 85
0.18272448 -0.5801002 -0.46570083 118 118 118
0.35606906 -0.43634248 -0.46612608 118 118 118
0.32539174 -0.47992435 -0.48104334 122 122 122
0.60324585 -0.5614512 -0.61386067 156 156 156
0.5534045 -0.56501806 -0.5191231 132 132 132
0.35183308 -0.49705896 -0.46588373 118 118 118
0.5813986 -0.5628895 -0.5369005 136 136 136
0.3106657 -0.42156455 -0.48808885 124 124 124
0.47122598 -0.5713072 -0.4635703 118 118 118
0.6002849 -0.5620138 -0.5493885 140 140 140
0.3531779 -0.5732916 -0.47109836 120 120 120
0.35452244 -0.5720094 -0.46780467 119 119 119
0.32799008 -0.5691899 -0.45918852 117 117 117
0.3233283 -0.58030975 -0.36671627 93 93 93
0.159384 -0.4802296 -0.5606612 142 142 142
0.19696839 -0.41791758 -0.53134793 135 135 135
0.23394142 -0.44042093 -0.5203792 132 132 132
0.20146571 -0.58003235 -0.47530413 121 121 121
0.22508688 -0.5508946 -0.5252873 133 133 133
0.22037467 -0.5768854 -0.47857192 122 122 122
0.23987922 -0.5290517 -0.5190625 132 132 132
0.29339233 -0.5866925 -0.40789497 104 104 104
0.27074262 -0.57612807 -0.47679102 121 121 121
0.29162288 -0.50793725 -0.49660093 126 126 126
0.38502908 -0.5777911 -0.4691139 119 119 119
0.2834668 -0.5688642 -0.4938211 125 125 125
0.31137282 -0.5805974 -0.35661134 90 90 90
0.12825435 -0.577845 -0.6390487 162 162 162
0.42049465 -0.5718405 -0.42982775 109 109 109
0.27120018 -0.42253608 -0.49659777 126 126 126
0.09997203 -0.57461184 -0.68447626 174 174 174
0.37930718 -0.5746663 -0.40275204 102 102 102
0.530106 -0.56471765 -0.3974132 101 101 101
0.33397406 -0.46868187 -0.47650433 121 121 121
0.37274095 -0.5800759 -0.39816862 101 101 101
0.20781028 -0.42609438 -0.52899635 134 134 134
0.18760216 -0.58150285 -0.46681818 119 119 119
0.23225087 -0.5741017 -0.48353556 123 123 123
0.5897325 -0.56293046 -0.4654135 118 118 118
0.2952659 -0.42963633 -0.49275932 125 125 125
0.15629375 -0.41042033 -0.54520315 139 139 139
0.2623105 -0.40866652 -0.50650936 129 129 129
0.27517092 -0.40386358 -0.49698526 126 126 126
0.3544902 -0.43505222 -0.46888524 119 119 119
0.19133034 -0.4149883 -0.5333086 135 135 135
0.23282507 -0.40449056 -0.5110608 130 130 130
0.25511065 -0.40595397 -0.5044905 128 128 128
0.31138793 -0.41218248 -0.47832465 121 121 121
0.32974333 -0.5774406 -0.3364485 85 85 85
0.31439635 -0.40450034 -0.48611847 123 123 123
0.20369878 -0.42167193 -0.5334126 136 136 136
0.18258 -0.3646507 -0.55344903 141 141 141
0.20771113 -0.36381528 -0.54016304 137 137 137
0.21557336 -0.38294876 -0.5190041 132 132 132
0.2131986 -0.36212817 -0.5424911 138 138 138
0.20063344 -0.38690382 -0.52988183 135 135 135
0.35205683 -0.36490542 -0.46338916 118 118 118
0.30925703 -0.3941358 -0.4813611 122 122 122
0.34781864 -0.36603385 -0.46147233 117 117 117
0.3608347 -0.4415219 -0.4683463 119 119 119
0.3289591 -0.4822643 -0.4825648 123 123 123
0.604583 -0.56043744 -0.61313295 156 156 156
0.5562944 -0.5645957 -0.51880115 132 132 132
0.35621464 -0.50212634 -0.46883738 119 119 119
0.58831465 -0.56969464 -0.5401094 137 137 137
0.3547082 -0.57274747 -0.4705458 119 119 119
0.35895187 -0.5773089 -0.47012073 119 119 119
0.330911 -0.5727198 -0.46077096 117 117 117
0.32722214 -0.5834389 -0.36728978 93 93 93
0.23732314 -0.44164607 -0.52038175 132 132 132
0.29645124 -0.5855051 -0.4066551 103 103 103
0.2733813 -0.5768174 -0.47672173 121 121 121
0.28547302 -0.56810737 -0.49320048 125 125 125
0.31446788 -0.58269 -0.3572045 91 91 91
0.13158768 -0.5739558 -0.63501287 161 161 161
0.27523208 -0.42736146 -0.49955815 127 127 127
0.102955654 -0.5737171 -0.6830001 174 174 174
0.5425703 -0.57984245 -0.40181243 102 102 102
0.21120909 -0.42822447 -0.5292734 134 134 134
0.19274516 -0.58219814 -0.46712816 119 119 119
0.23637451 -0.5828979 -0.48819977 124 124 124
0.59753615 -0.5709629 -0.46840835 119 119 119
0.29857734 -0.43250343 -0.49392182 125 125 125
0.15977031 -0.4154565 -0.54811054 139 139 139
0.26422828 -0.40809724 -0.50516516 128 128 128
0.23442218 -0.40286002 -0.50928104 129 129 129
0.31538066 -0.4176049 -0.48132595 122 122 122
0.3321116 -0.5794127 -0.33677962 85 85 85
0.3170127 -0.40685913 -0.4869513 124 124 124
0.53520596 -0.57848334 -0.50513697 128 128 128
0.20540208 -0.41810778 -0.5300697 135 135 135
0.6150855 -0.5777364 -0.5423649 138 138 138
0.21053912 -0.36639923 -0.5419905 138 138 138
0.22030355 -0.38848013 -0.52258664 133 133 133
0.21632227 -0.36548156 -0.54479814 138 138 138
0.35658595 -0.3704464 -0.4665981 118 118 118
0.5102323 -0.58321595 -0.48559463 123 123 123
0.21772182 -0.5727426 -0.52376467 133 133 133
0.23819053 -0.36443847 -0.5368537 136 136 136
0.1819911 -0.57912886 -0.4604475 117 117 117
0.1702329 -0.57263386 -0.54438365 138 138 138
0.34971997 -0.5825323 -0.29188097 74 74 74
0.2183776 -0.36483 -0.5528776 140 140 140
0.20774826 -0.364451 -0.5555228 141 141 141
0.5683008 -0.5550418 -0.6264024 159 159 159
0.2086772 -0.4080826 -0.5265713 134 134 134
0.54576784 -0.577495 -0.5114772 130 130 130
0.2161819 -0.36470303 -0.558222 142 142 142
0.15687805 -0.5673593 -0.6185132 157 157 157
0.1601022 -0.5671812 -0.63937676 163 163 163
0.5614034 -0.5730405 -0.4368135 111 111 111
0.51947397 -0.57701194 -0.38692635 98 98 98
0.3520556 -0.5743153 -0.45558256 116 116 116
0.20746747 -0.43879148 -0.52920145 134 134 134
0.46387538 -0.5604496 -0.86380297 220 220 220
0.24704677 -0.57750213 -0.35447365 90 90 90
0.658939 -0.56492436 -0.6646269 169 169 169
0.29531014 -0.58013666 -0.25122035 64 64 64
0.5257809 -0.56379414 -0.82705003 210 210 210
0.36535054 -0.5809455 -0.2707958 69 69 69
0.27151522 -0.57347393 -0.46829566 119 119 119
0.21940896 -0.44465396 -0.52850896 134 134 134
0.4906658 -0.5616474 -0.8073922 205 205 205
0.2130763 -0.4051023 -0.5192871 132 132 132
0.46432114 -0.57013476 -0.26196647 66 66 66
0.20571989 -0.38012815 -0.5296535 135 135 135
0.37877408 -0.55808413 -0.8639139 220 220 220
0.4855126 -0.5841471 -0.2381773 60 60 60
0.25666466 -0.572479 -0.50562316 128 128 128
0.31652173 -0.52140677 -0.48308828 123 123 123
0.13512605 -0.57819486 -0.6774361 172 172 172
0.29568714 -0.57984924 -0.2441524 62 62 62
0.27022663 -0.5714891 -0.21918717 55 55 55
0.37676728 -0.57905805 -0.21311879 54 54 54
0.4913238 -0.5627388 -0.80644643 205 205 205
0.28716898 -0.5707308 -0.49423534 126 126 126
0.55324906 -0.5630605 -0.7005025 178 178 178
0.4039875 -0.58682084 -0.20691425 52 52 52
0.16035631 -0.5636543 -0.43186152 110 110 110
0.5167567 -0.5564897 -0.8381844 213 213 213
0.5017582 -0.58936584 -0.24312595 61 61 61
0.14680648 -0.57848454 -0.45443296 115 115 115
0.5160411 -0.5590805 -0.7684914 195 195 195
0.23728222 -0.36609012 -0.53857386 137 137 137
0.46606934 -0.5742338 -0.22827202 58 58 58
0.41162694 -0.56014466 -0.20149443 51 51 51
0.4506438 -0.5719019 -0.2300399 58 58 58
0.22704937 -0.42354897 -0.52440834 133 133 133
0.27776784 -0.37459522 -0.5085274 129 129 129
0.61824185 -0.5684042 -0.727755 185 185 185
0.541008 -0.5629809 -0.72707397 185 185 185
0.35891265 -0.50478494 -0.46806854 119 119 119
0.33039504 -0.56274045 -0.825561 210 210 210
0.21398158 -0.3644354 -0.5493168 140 140 140
0.19155268 -0.363601 -0.56647336 144 144 144
0.18688282 -0.3638173 -0.5697758 145 145 145
0.17995255 -0.36479956 -0.5538025 141 141 141
0.1815831 -0.36663905 -0.56298053 143 143 143
0.3391363 -0.5562731 -0.87471145 223 223 223
0.5622055 -0.57259333 -0.8181815 208 208 208
0.57512087 -0.5781621 -0.5127848 130 130 130
0.3439838 -0.5808805 -0.46556026 118 118 118
0.15818205 -0.41801104 -0.55158013 140 140 140
0.18025275 -0.36155912 -0.565896 144 144 144
0.54777867 -0.561847 -0.73188084 186 186 186
0.5568517 -0.56520593 -0.73769605 188 188 188
0.59419745 -0.56072545 -0.7091998 180 180 180
0.12865765 -0.5775845 -0.63672507 162 162 162
0.25572878 -0.43240127 -0.5089383 129 129 129
0.19331855 -0.4131498 -0.53240526 135 135 135
0.37775558 -0.5684266 -0.85498583 218 218 218
0.14460987 -0.57942104 -0.5323314 135 135 135
0.13019001 -0.57798815 -0.5602888 142 142 142
0.19955216 -0.36272913 -0.56813 144 144 144
0.23505944 -0.57248974 -0.5175453 131 131 131
0.47928062 -0.5691966 -0.7617141 194 194 194
0.14980106 -0.5627905 -0.80990314 206 206 206
0.1700294 -0.56056786 -0.8218652 209 209 209
0.12014648 -0.5627543 -0.7902441 201 201 201
0.18787594 -0.36376426 -0.566876 144 144 144
0.13509731 -0.56101537 -0.7984218 203 203 203
0.12124911 -0.5606086 -0.7983445 203 203 203
0.18284053 -0.36542693 -0.55826753 142 142 142
0.15022187 -0.57242465 -0.8272681 210 210 210
0.29170808 -0.36714542 -0.51700306 131 131 131
0.5772684 -0.56970716 -0.71625364 182 182 182
0.18474488 -0.56306636 -0.8428765 214 214 214
0.18646666 -0.3702299 -0.5289002 134 134 134
0.28665218 -0.4271802 -0.49637172 126 126 126
0.6615448 -0.5724336 -0.63193035 161 161 161
0.5442391 -0.5723249 -0.64779174 165 165 165
0.16334572 -0.5753424 -0.64530236 164 164 164
0.19540477 -0.36637565 -0.5416793 138 138 138
0.19686389 -0.44109794 -0.53821546 137 137 137
0.15447219 -0.56844735 -0.6063818 154 154 154
0.270191 -0.41876367 -0.5026444 128 128 128
0.45474097 -0.5677961 -0.7448172 189 189 189
0.5775588 -0.57789636 -0.71197313 181 181 181
0.58661246 -0.5604607 -0.7219864 184 184 184
0.2411741 -0.43763664 -0.51309085 130 130 130
0.5005721 -0.55824006 -0.8224761 209 209 209
0.459752 -0.5602752 -0.73683536 187 187 187
0.39077434 -0.5647824 -0.75441927 192 192 192
0.25261703 -0.40658388 -0.5077989 129 129 129
0.43839502 -0.5543331 -0.9170904 233 233 233
0.31672388 -0.5582354 -0.7939482 202 202 202
0.13706952 -0.56975424 -0.7961069 203 203 203
0.62764305 -0.5553398 -0.7469914 190 190 190
0.55348945 -0.5501573 -0.677588 172 172 172
0.13428748 -0.57681954 -0.62615967 159 159 159
0.45137435 -0.5598525 -0.7557769 192 192 192
0.28369325 -0.55710745 -0.89683 228 228 228
0.27286655 -0.5595044 -0.8913441 227 227 227
0.44348422 -0.56899405 -0.92066437 234 234 234
0.29844677 -0.5579016 -0.7817162 199 199 199
0.29855797 -0.5631883 -0.89207613 227 227 227
0.23529528 -0.55430865 -0.859781 219 219 219
0.6045692 -0.5605979 -0.613254 156 156 156
0.58874017 -0.57074237 -0.53966737 137 137 137
0.35248524 -0.57239425 -0.4706288 120 120 120
0.35711333 -0.5755315 -0.46884924 119 119 119
0.3306784 -0.5732256 -0.46067673 117 117 117
0.3283593 -0.5834216 -0.36699653 93 93 93
0.23812783 -0.44069645 -0.51868653 132 132 132
0.28931522 -0.5751171 -0.495953 126 126 126
0.31439885 -0.5817771 -0.35672152 90 90 90
0.13196144 -0.571108 -0.63318425 161 161 161
0.10428351 -0.57347417 -0.68172157 173 173 173
0.5393695 -0.57559824 -0.400378 102 102 102
0.2999017 -0.4331508 -0.49351707 125 125 125
0.23559947 -0.40617904 -0.5117577 130 130 130
0.31613535 -0.40427765 -0.4845074 123 123 123
0.53288704 -0.57477283 -0.50328934 128 128 128
0.21120268 -0.365373 -0.5406947 137 137 137
0.22141516 -0.38860497 -0.52191836 133 133 133
0.21697891 -0.3645857 -0.5433053 138 138 138
0.35634494 -0.3706484 -0.46606773 118 118 118
0.50284415 -0.57103765 -0.4819578 122 122 122
0.21930653 -0.57167876 -0.5235517 133 133 133
0.18278566 -0.57578397 -0.4592301 117 117 117
0.17198007 -0.5726559 -0.54384947 138 138 138
0.3491628 -0.5784445 -0.29215267 74 74 74
0.2192439 -0.36364484 -0.55147326 140 140 140
0.20881009 -0.3638352 -0.5542418 141 141 141
0.5416806 -0.5719396 -0.50870794 129 129 129
0.21692616 -0.36396495 -0.5568516 141 141 141
0.15571813 -0.57040226 -0.6191092 157 157 157
0.5594729 -0.5703348 -0.43619865 111 111 111
0.34912282 -0.5657624 -0.45413637 115 115 115
0.4622172 -0.55702424 -0.8604897 219 219 219
0.2476798 -0.5748253 -0.35432103 90 90 90
0.52123296 -0.5579643 -0.82168096 209 209 209
0.36879116 -0.5832014 -0.27111745 69 69 69
0.22000945 -0.44359484 -0.5277355 134 134 134
0.48781502 -0.5568603 -0.8028482 204 204 204
0.21081363 -0.5721234 -0.3565669 90 90 90
0.23251395 -0.57247853 -0.32383195 82 82 82
0.37806576 -0.55586314 -0.8617577 219 219 219
0.2547813 -0.568359 -0.5039314 128 128 128
0.1361126 -0.57486784 -0.6745063 171 171 171
0.37412924 -0.5718695 -0.21456255 54 54 54
0.48804379 -0.5568819 -0.8008473 204 204 204
0.28585225 -0.5655234 -0.4924605 125 125 125
0.2519136 -0.5743158 -0.27660412 70 70 70
0.54836637 -0.55695784 -0.69601774 177 177 177
0.40079933 -0.5794463 -0.20767857 52 52 52
0.51753604 -0.5566765 -0.83764637 213 213 213
0.14811574 -0.57720304 -0.45380083 115 115 115
0.2130203 -0.56732833 -0.29241806 74 74 74
0.5144666 -0.55742586 -0.7665821 195 195 195
0.23915657 -0.36993358 -0.5401269 137 137 137
0.44738412 -0.56419015 -0.23177531 59 59 59
0.19098574 -0.5702493 -0.2869613 73 73 73
0.5357484 -0.5553361 -0.7222098 184 184 184
0.3593635 -0.504599 -0.46767542 119 119 119
0.3300332 -0.56032765 -0.82335097 209 209 209
0.21332783 -0.36118194 -0.54703116 139 139 139
0.18764535 -0.36174634 -0.5681259 144 144 144
0.1806269 -0.36305526 -0.55253243 140 140 140
0.34001523 -0.5577328 -0.87580717 223 223 223
0.34469604 -0.58002484 -0.46426243 118 118 118
0.24024047 -0.5708873 -0.49485105 126 126 126
0.5505304 -0.5633515 -0.7332745 186 186 186
0.55104285 -0.557709 -0.7321321 186 186 186
0.5905202 -0.55675244 -0.70589364 180 180 180
0.1300532 -0.5740824 -0.6340375 161 161 161
0.15134168 -0.5771276 -0.33115065 84 84 84
0.36850998 -0.5322859 -0.46019024 117 117 117
0.37602103 -0.5630183 -0.8495153 216 216 216
0.14573203 -0.5754045 -0.5304745 135 135 135
0.16170502 -0.5718466 -0.45949697 117 117 117
0.13149084 -0.57725835 -0.55953085 142 142 142
0.20085865 -0.36328015 -0.56790763 144 144 144
0.23347092 -0.5655377 -0.51520187 131 131 131
0.47973347 -0.5681876 -0.7600038 193 193 193
0.12229401 -0.5621482 -0.7911787 201 201 201
0.18886611 -0.36255 -0.56584305 144 144 144
0.13702135 -0.5611383 -0.79969 203 203 203
0.122602955 -0.55808985 -0.7975453 203 203 203
0.18291497 -0.36100045 -0.55496585 141 141 141
0.11196418 -0.5742725 -0.44616178 113 113 113
0.41204178 -0.5809885 -0.21527712 54 54 54
0.13914225 -0.5678543 -0.34111527 86 86 86
0.15131152 -0.56913483 -0.8233144 209 209 209
0.19817789 -0.5772823 -0.5026736 128 128 128
0.43580633 -0.5655854 -0.28757322 73 73 73
0.35578558 -0.5678363 -0.16904873 43 43 43
0.18499297 -0.5596396 -0.84062684 214 214 214
0.18599655 -0.37362424 -0.5314426 135 135 135
0.2631693 -0.5934572 -0.5116134 130 130 130
0.3936897 -0.579499 -0.19427471 49 49 49
0.23688982 -0.5755533 -0.47400767 120 120 120
0.6600651 -0.5717865 -0.6296024 160 160 160
0.5407761 -0.56715775 -0.64400643 164 164 164
0.36089075 -0.5814668 -0.15705407 40 40 40
0.42708105 -0.5778847 -0.17748445 45 45 45
0.19506645 -0.36308223 -0.5393833 137 137 137
0.15565008 -0.5662446 -0.5472451 139 139 139
0.16457947 -0.5784749 -0.45729327 116 116 116
0.15561481 -0.564757 -0.6054528 154 154 154
0.41416478 -0.57281196 -0.19665053 50 50 50
0.3695789 -0.5585909 -0.21127099 53 53 53
0.45231527 -0.5647812 -0.74111533 188 188 188
0.42500478 -0.5578884 -0.7217835 184 184 184
0.58512866 -0.55742896 -0.7201278 183 183 183
0.118109085 -0.57190263 -0.23038822 58 58 58
0.10308917 -0.5710187 -0.22072805 56 56 56
0.4986655 -0.5558722 -0.819545 208 208 208
0.1432871 -0.568079 -0.5314379 135 135 135
0.38998067 -0.5611839 -0.7515441 191 191 191
0.37616995 -0.575758 -0.26790243 68 68 68
0.09194298 -0.573154 -0.21227328 54 54 54
0.095930904 -0.5694158 -0.32646936 83 83 83
0.08135544 -0.5673635 -0.64964694 165 165 165
0.0968187 -0.5736269 -0.23017775 58 58 58
0.3180708 -0.55764127 -0.79450524 202 202 202
0.11731368 -0.5663669 -0.54201174 138 138 138
0.13660918 -0.5696 -0.33236593 84 84 84
0.13812445 -0.5689591 -0.7936778 202 202 202
0.06828822 -0.56438184 -0.21348873 54 54 54
0.24052988 -0.57525265 -0.31944466 81 81 81
0.5571202 -0.55558085 -0.68066895 173 173 173
0.06929086 -0.57396424 -0.2192566 55 55 55
0.07027236 -0.576774 -0.37625122 95 95 95
0.13687436 -0.57607794 -0.6252605 159 159 159
0.27639663 -0.55601907 -0.17898656 45 45 45
0.5934346 -0.5674298 -0.53382975 136 136 136
0.45041895 -0.55871665 -0.755103 192 192 192
0.42512667 -0.5841819 -0.19758993 50 50 50
0.39281404 -0.5824988 -0.22098972 56 56 56
0.22574897 -0.573822 -0.48647147 124 124 124
0.28485042 -0.5556302 -0.89572936 228 228 228
0.27366918 -0.55560076 -0.8881918 226 226 226
0.22413203 -0.5667753 -0.3004959 76 76 76
0.059794545 -0.5684062 -0.3788426 96 96 96
0.13688298 -0.5652412 -0.24196151 61 61 61
0.06802589 -0.56083286 -0.38315088 97 97 97
0.32222426 -0.583066 -0.48458183 123 123 123
0.2019307 -0.36373243 -0.5477512 139 139 139
0.38887483 -0.5826845 -0.16647983 42 42 42
0.2471792 -0.43624988 -0.5140522 131 131 131
0.19975728 -0.5726621 -0.27198124 69 69 69
0.3142885 -0.57422125 -0.17948085 45 45 45
0.35919777 -0.5762782 -0.46172988 117 117 117
0.29765028 -0.55603707 -0.8859086 225 225 225
0.1854488 -0.6048901 -0.44814596 114 114 114
0.2359215 -0.5554795 -0.8609531 219 219 219
0.1954653 -0.5745734 -0.47455016 121 121 121
0.24649528 -0.56892455 -0.4885807 124 124 124
0.3748178 -0.5768281 -0.40458387 103 103 103
0.33410174 -0.5663806 -0.38274723 97 97 97
0.49135882 -0.56648326 -0.4755519 121 121 121
0.42426562 -0.5624448 -0.7217406 184 184 184
0.5088858 -0.55034125 -0.6699219 170 170 170
0.1954512 -0.56842613 -0.84410363 215 215 215
0.20791364 -0.5707326 -0.29686832 75 75 75
0.25213674 -0.5612087 -0.878594 224 224 224
0.20189276 -0.36349738 -0.55592823 141 141 141
0.27823675 -0.5843154 -0.40456963 103 103 103
0.13447012 -0.570258 -0.3220603 82 82 82
0.30261835 -0.55970013 -0.9204911 234 234 234
0.14615376 -0.5697619 -0.77892387 198 198 198
0.18339226 -0.572822 -0.36130825 92 92 92
0.352517 -0.5568397 -0.42340595 107 107 107
0.12561518 -0.5689231 -0.65128887 166 166 166
0.35076848 -0.566892 -0.39100605 99 99 99
0.08617299 -0.5703919 -0.5006462 127 127 127
0.12446751 -0.5679126 -0.5207102 132 132 132
0.35005206 -0.37539586 -0.46791905 119 119 119
0.40093392 -0.5655643 -0.68644714 175 175 175
0.41220242 -0.5658308 -0.7147304 182 182 182
0.40352577 -0.56813073 -0.69903284 178 178 178
0.36249256 -0.51314497 -0.46140757 117 117 117
0.18926153 -0.36900714 -0.5320792 135 135 135
0.12545191 -0.56681097 -0.66369915 169 169 169
0.19892374 -0.38323382 -0.5297463 135 135 135
0.44086564 -0.57933986 -0.69940555 178 178 178
0.2987203 -0.54688144 -0.90029705 229 229 229
0.22814491 -0.57652843 -0.4970275 126 126 126
0.45485514 -0.5620986 -0.67104733 171 171 171
0.17756079 -0.3592348 -0.5661336 144 144 144
0.122240424 -0.5701916 -0.64758956 165 165 165
0.08531478 -0.5569699 -0.7385434 188 188 188
0.24709792 -0.54738796 -0.8507931 216 216 216
0.6053318 -0.5609597 -0.6152697 156 156 156
0.5849738 -0.5668181 -0.5379226 137 137 137
0.35045588 -0.5729126 -0.47210345 120 120 120
0.35555375 -0.57450914 -0.4692693 119 119 119
0.3309608 -0.57545614 -0.46217263 117 117 117
0.32764637 -0.58247447 -0.36689037 93 93 93
0.13143195 -0.5710591 -0.6338681 161 161 161
0.103164345 -0.57209074 -0.68111485 173 173 173
0.53789735 -0.57282007 -0.40099937 102 102 102
0.52973694 -0.57016075 -0.5030005 128 128 128
0.21063298 -0.36461565 -0.5397387 137 137 137
0.21625784 -0.36449292 -0.54276955 138 138 138
0.5013648 -0.56925297 -0.48252374 123 123 123
0.21737279 -0.5727174 -0.52460843 133 133 133
0.18222591 -0.57553685 -0.45946765 117 117 117
0.17145272 -0.5729015 -0.54417974 138 138 138
0.3489149 -0.57724094 -0.2922491 74 74 74
0.21842653 -0.3630803 -0.55110085 140 140 140
0.5418873 -0.5722841 -0.5094479 129 129 129
0.21606836 -0.3625256 -0.55558014 141 141 141
0.5579239 -0.5686288 -0.43660876 111 111 111
0.34686166 -0.5603571 -0.45365036 115 115 115
0.51976454 -0.557119 -0.8215783 209 209 209
0.37055424 -0.58442163 -0.27161658 69 69 69
0.488244 -0.55890465 -0.8050947 205 205 205
0.21010272 -0.57074654 -0.35679337 90 90 90
0.23171656 -0.57232344 -0.32415676 82 82 82
0.37677866 -0.555768 -0.8623869 219 219 219
0.25774217 -0.5762701 -0.50658476 129 129 129
0.13523738 -0.57234085 -0.6727991 171 171 171
0.3740319 -0.56924415 -0.21590263 55 55 55
0.2879389 -0.5716027 -0.4944432 126 126 126
0.55016005 -0.56196797 -0.6995933 178 178 178
0.40032506 -0.5763036 -0.20911741 53 53 53
0.14759596 -0.57476497 -0.45344663 115 115 115
0.5158805 -0.56046927 -0.7690567 196 196 196
0.44834974 -0.56605864 -0.2326371 59 59 59
0.19117299 -0.5699549 -0.28758556 73 73 73
0.53424203 -0.5542897 -0.7222483 184 184 184
0.32982683 -0.56262016 -0.8255472 210 210 210
0.21369001 -0.3632681 -0.54781944 139 139 139
0.18744636 -0.36349192 -0.56929153 145 145 145
0.18015581 -0.36397013 -0.55314195 141 141 141
0.3391487 -0.5575235 -0.87612545 223 223 223
0.34371912 -0.5776526 -0.46410802 118 118 118
0.241128 -0.57427704 -0.4961795 126 126 126
0.55120933 -0.5593989 -0.7336276 187 187 187
0.1284519 -0.5711731 -0.6327096 161 161 161
0.15061542 -0.57419205 -0.33101714 84 84 84
0.1460217 -0.5754024 -0.53070426 135 135 135
0.16131677 -0.5744357 -0.46008533 117 117 117
0.13035947 -0.57377136 -0.55879104 142 142 142
0.20014015 -0.36379 -0.5673854 144 144 144
0.23341447 -0.56858456 -0.51607424 131 131 131
0.4745097 -0.56227946 -0.75618255 192 192 192
0.15178761 -0.56435335 -0.8133803 207 207 207
0.12084728 -0.56529593 -0.794381 202 202 202
0.18839636 -0.36346886 -0.56632996 144 144 144
0.13584085 -0.56247866 -0.80210334 204 204 204
0.12136102 -0.560994 -0.8005992 204 204 204
0.18263318 -0.36228105 -0.5559922 141 141 141
0.111636795 -0.5720649 -0.44646773 113 113 113
0.40713787 -0.5697001 -0.21761833 55 55 55
0.13898712 -0.571126 -0.34147128 87 87 87
0.15040831 -0.5682571 -0.82187945 209 209 209
0.35211435 -0.5721048 -0.2862001 72 72 72
0.43707305 -0.56766856 -0.28855908 73 73 73
0.35549635 -0.56756544 -0.17067674 43 43 43
0.1845735 -0.565434 -0.84411085 215 215 215
0.26413453 -0.5967647 -0.5125932 130 130 130
0.23714417 -0.5758234 -0.47426936 120 120 120
0.6524456 -0.5633601 -0.62586665 159 159 159
0.53826106 -0.5642104 -0.64278096 163 163 163
0.42471376 -0.57223845 -0.17913651 45 45 45
0.19566469 -0.36453846 -0.5397753 137 137 137
0.1547842 -0.5701705 -0.5487398 139 139 139
0.15440728 -0.567695 -0.6065362 154 154 154
0.4110499 -0.56688535 -0.19847855 50 50 50
0.37256745 -0.56560814 -0.21100485 53 53 53
0.45413157 -0.56900656 -0.7437631 189 189 189
0.4256395 -0.5609288 -0.72404623 184 184 184
0.11811185 -0.5718106 -0.23085527 58 58 58
0.49766415 -0.55443144 -0.81971025 209 209 209
0.38882023 -0.5609803 -0.75211763 191 191 191
0.09208093 -0.5722376 -0.21295942 54 54 54
0.09555693 -0.56934357 -0.3274154 83 83 83
0.09708529 -0.57134116 -0.23117691 58 58 58
0.3182637 -0.5598469 -0.79718935 203 203 203
0.11739278 -0.5722492 -0.54429674 138 138 138
0.13654988 -0.5705595 -0.33310148 84 84 84
0.13752645 -0.5693792 -0.79497933 202 202 202
0.06808915 -0.5664314 -0.21348391 54 54 54
0.24008814 -0.57439697 -0.31982356 81 81 81
0.5605031 -0.56084 -0.6847948 174 174 174
0.13690731 -0.5781652 -0.62551993 159 159 159
0.5917237 -0.5651665 -0.5346302 136 136 136
0.449869 -0.55941045 -0.7562119 192 192 192
0.42174056 -0.57558274 -0.19962367 50 50 50
0.27362388 -0.55933416 -0.8920498 227 227 227
0.22316194 -0.5637393 -0.3016165 76 76 76
0.059557058 -0.5708356 -0.3799354 96 96 96
0.32662404 -0.59600055 -0.4887655 124 124 124
0.20252149 -0.3673031 -0.5493677 140 140 140
0.15074077 -0.5626277 -0.40594316 103 103 103
0.31300238 -0.5688652 -0.18133578 46 46 46
0.18424232 -0.5953264 -0.4471355 114 114 114
0.23479751 -0.5567553 -0.8629731 220 220 220
0.25301075 -0.5934447 -0.49419445 126 126 126
0.4948846 -0.57332957 -0.4774278 121 121 121
0.42311293 -0.5632547 -0.72207296 184 184 184
0.19489953 -0.56661475 -0.8425312 214 214 214
0.20702489 -0.56805885 -0.29804295 76 76 76
0.14541745 -0.5703187 -0.77883995 198 198 198
0.18271166 -0.5706917 -0.3618568 92 92 92
0.35872766 -0.57456005 -0.42697024 108 108 108
0.12528846 -0.56676364 -0.65071875 165 165 165
0.085300535 -0.5779544 -0.5020068 128 128 128
0.40000278 -0.56502664 -0.6867486 175 175 175
0.40965447 -0.56193244 -0.713235 181 181 181
0.40181625 -0.56732774 -0.69902873 178 178 178
0.36954498 -0.5255115 -0.462852 118 118 118
0.320627 -0.5710739 -0.3334167 85 85 85
0.38040966 -0.56899345 -0.40284547 102 102 102
0.2905472 -0.5686784 -0.40507692 103 103 103
0.124444544 -0.56731033 -0.6646526 169 169 169
0.18658464 -0.56840694 -0.46246594 117 117 117
0.06296543 -0.57337534 -0.38128686 97 97 97
0.10564269 -0.57440424 -0.41983467 107 107 107
0.13415448 -0.56378496 -0.2503476 63 63 63
0.45493957 -0.56267405 -0.6720786 171 171 171
0.2160535 -0.5809345 -0.4921454 125 125 125
0.12202263 -0.5665786 -0.64779323 165 165 165
0.26194936 -0.552642 -0.38743538 98 98 98
0.2836697 -0.36270115 -0.52868587 134 134 134
0.08345783 -0.5643352 -0.7429436 189 189 189
0.33438247 -0.56982446 -0.432488 110 110 110
0.37794274 -0.4035752 -0.48960882 124 124 124
0.4784277 -0.5632299 -0.65035206 165 165 165
0.46439132 -0.56313586 -0.64421666 164 164 164
0.23194063 -0.567551 -0.2711197 69 69 69
0.13864633 -0.5756016 -0.4307086 109 109 109
0.048554108 -0.5774722 -0.3712095 94 94 94
0.51311445 -0.5581168 -0.66695434 170 170 170
-0.0038224459 -0.5708029 -0.32984677 84 84 84
0.31545293 -0.5554168 -0.37534916 95 95 95
0.10630271 -0.5594958 -0.21857421 55 55 55
0.3992485 -0.566355 -0.6771927 172 172 172
0.109554365 -0.5627687 -0.7931759 202 202 202
0.07517652 -0.5734582 -0.4799464 122 122 122
0.11673702 -0.56259716 -0.30305064 77 77 77
0.34493634 -0.57424295 -0.30105454 76 76 76
0.33222908 -0.56706655 -0.6994929 178 178 178
0.60425353 -0.5609963 -0.6167906 157 157 157
0.58531237 -0.5679719 -0.5395534 137 137 137
0.35469472 -0.574807 -0.46975672 119 119 119
0.3300762 -0.57675874 -0.4635026 118 118 118
0.32768023 -0.5821201 -0.36674568 93 93 93
0.10327577 -0.57346046 -0.6825234 174 174 174
0.5297269 -0.5714494 -0.5037998 128 128 128
0.21071225 -0.364928 -0.54034996 137 137 137
0.21606162 -0.36496788 -0.54338676 138 138 138
0.49889237 -0.569009 -0.48248535 123 123 123
0.21829611 -0.5740751 -0.5254605 133 133 133
0.18188141 -0.5763329 -0.46015772 117 117 117
0.34858412 -0.5771932 -0.2929353 74 74 74
0.21823412 -0.36294895 -0.5514821 140 140 140
0.54168165 -0.5727559 -0.510096 130 130 130
0.55753577 -0.56875706 -0.43804318 111 111 111
0.36955222 -0.58427197 -0.27250692 69 69 69
0.48814693 -0.55970955 -0.8067347 205 205 205
0.2107157 -0.57120895 -0.35736904 91 91 91
0.25743982 -0.57740384 -0.5079056 129 129 129
0.13519648 -0.5748661 -0.6739806 171 171 171
0.37316108 -0.56767696 -0.21668148 55 55 55
0.2885059 -0.57282454 -0.49552974 126 126 126
0.5508133 -0.5636816 -0.7017269 178 178 178
0.40078902 -0.5771754 -0.20939988 53 53 53
0.1473926 -0.5758915 -0.45406243 115 115 115
0.515923 -0.56153095 -0.77078927 196 196 196
0.44930398 -0.56791157 -0.23399955 59 59 59
0.1904718 -0.57088864 -0.28803498 73 73 73
0.53313935 -0.5541637 -0.7234764 184 184 184
0.33040816 -0.5640426 -0.8269572 210 210 210
0.21378103 -0.3640213 -0.5484346 139 139 139
0.18732911 -0.36330372 -0.5693723 145 145 145
0.18007146 -0.36375505 -0.55316013 141 141 141
0.34541774 -0.5805558 -0.464908 118 118 118
0.24163777 -0.57510984 -0.49698663 126 126 126
0.15080291 -0.5756757 -0.33180273 84 84 84
0.14578748 -0.5771869 -0.5312963 135 135 135
0.1625122 -0.5729516 -0.46108347 117 117 117
0.13036907 -0.57420075 -0.55931896 142 142 142
0.23404224 -0.5704254 -0.5171557 131 131 131
0.4762809 -0.56544626 -0.75861704 193 193 193
0.12139031 -0.5664432 -0.79587 202 202 202
0.18865164 -0.36380655 -0.56692743 144 144 144
0.13635616 -0.56248236 -0.80286026 204 204 204
0.12156773 -0.5611548 -0.8013173 204 204 204
0.18260944 -0.36201364 -0.5565154 141 141 141
0.11152654 -0.5724371 -0.44751203 114 114 114
0.407861 -0.5713035 -0.21802229 55 55 55
0.13894327 -0.5716839 -0.3422355 87 87 87
0.15061608 -0.57072145 -0.8236528 210 210 210
0.4373229 -0.568496 -0.28997132 73 73 73
0.35619634 -0.56895936 -0.17174497 43 43 43
0.18435356 -0.56677276 -0.8459586 215 215 215
0.26096803 -0.59172565 -0.5109909 130 130 130
0.2366938 -0.5755739 -0.47493196 121 121 121
0.5387989 -0.56625366 -0.64393544 164 164 164
0.4246714 -0.5738182 -0.17882288 45 45 45
0.19550715 -0.3650139 -0.54068303 137 137 137
0.15624027 -0.56838566 -0.60727906 154 154 154
0.41210127 -0.5683477 -0.1992175 50 50 50
0.37254274 -0.56501985 -0.21252093 54 54 54
0.42332348 -0.5593532 -0.72418064 184 184 184
0.1181149 -0.5730976 -0.23102832 58 58 58
0.37123454 -0.5678077 -0.26749462 68 68 68
0.09159819 -0.57319766 -0.21330732 54 54 54
0.09571348 -0.5685891 -0.32815516 83 83 83
0.097045064 -0.5708048 -0.23197842 59 59 59
0.31906053 -0.56056935 -0.7985263 203 203 203
0.11763332 -0.57135385 -0.54488593 138 138 138
0.13605346 -0.57032853 -0.33397162 85 85 85
0.13758984 -0.5700277 -0.79596823 202 202 202
0.068018205 -0.56713974 -0.21388292 54 54 54
0.23980793 -0.57607263 -0.32001874 81 81 81
0.5601546 -0.56106335 -0.6864451 175 175 175
0.136915 -0.5814574 -0.62657315 159 159 159
0.4220869 -0.576378 -0.20005748 51 51 51
0.22358637 -0.5650815 -0.3023703 77 77 77
0.2013385 -0.36715162 -0.54985666 140 140 140
0.184264 -0.5948653 -0.4470048 113 113 113
0.25221273 -0.5904299 -0.49312347 125 125 125
0.1951482 -0.5706175 -0.8451024 215 215 215
0.20688337 -0.568267 -0.29893225 76 76 76
0.14557242 -0.57480764 -0.7818775 199 199 199
0.18164997 -0.5706733 -0.36274803 92 92 92
0.35922915 -0.57545096 -0.42853892 109 109 109
0.12506416 -0.57087207 -0.65228856 166 166 166
0.08533699 -0.57907355 -0.50319403 128 128 128
0.39983392 -0.56601876 -0.68751854 175 175 175
0.41072676 -0.5646511 -0.7151198 182 182 182
0.3209095 -0.5725152 -0.33380008 85 85 85
0.38148624 -0.57252413 -0.40348572 102 102 102
0.12430927 -0.5676465 -0.6652633 169 169 169
0.18612845 -0.5694354 -0.46298876 118 118 118
0.06336082 -0.57301825 -0.3820839 97 97 97
0.051435716 -0.5619843 -0.2697932 68 68 68
0.10541477 -0.573459 -0.4202304 107 107 107
0.13388681 -0.5639075 -0.25104374 64 64 64
0.2150935 -0.5799623 -0.49220297 125 125 125
0.12173815 -0.5660949 -0.6477486 165 165 165
0.26245794 -0.55420583 -0.38809237 98 98 98
0.08392771 -0.56721914 -0.74514997 190 190 190
0.33485857 -0.5691747 -0.43316373 110 110 110
0.24774961 -0.56772864 -0.8680501 221 221 221
0.37903476 -0.40589494 -0.49145654 125 125 125
0.47853795 -0.5642146 -0.6518926 166 166 166
0.46440417 -0.56360596 -0.6458043 164 164 164
0.2317987 -0.5690384 -0.2718078 69 69 69
0.063750565 -0.5817519 -0.4910749 125 125 125
0.048114426 -0.57818174 -0.3716511 94 94 94
0.34550673 -0.5600172 -0.70788246 180 180 180
0.5116445 -0.55702233 -0.6677674 170 170 170
-0.004222706 -0.57272655 -0.33008355 84 84 84
0.31623653 -0.5583023 -0.3761835 95 95 95
0.106222995 -0.56418383 -0.21823952 55 55 55
0.39991075 -0.5690465 -0.6792424 173 173 173
0.10987808 -0.5697845 -0.79738986 203 203 203
0.07542437 -0.5791935 -0.48101395 122 122 122
0.34634036 -0.5764368 -0.3024255 77 77 77
0.33212453 -0.5680249 -0.70051926 178 178 178
0.1352298 -0.5614725 -0.44544622 113 113 113
0.21670002 -0.5823736 -0.47028413 119 119 119
-0.006598547 -0.5603728 -0.33741948 86 86 86
0.29904127 -0.5760129 -0.12959725 33 33 33
0.31489795 -0.56559503 -0.34885812 88 88 88
0.3616705 -0.56231683 -0.29944512 76 76 76
0.60452235 -0.5618562 -0.6178457 157 157 157
0.5842445 -0.5686774 -0.54078084 137 137 137
0.33033246 -0.5771426 -0.4639063 118 118 118
0.327258 -0.5820729 -0.36693674 93 93 93
0.102236904 -0.5736667 -0.6826602 174 174 174
0.53042704 -0.5721955 -0.5050031 128 128 128
0.20994425 -0.36507708 -0.54055184 137 137 137
0.21535532 -0.3651088 -0.54348063 138 138 138
0.5003768 -0.5680376 -0.48485446 123 123 123
0.18157761 -0.5761767 -0.46048152 117 117 117
0.3488111 -0.57652813 -0.29366976 74 74 74
0.21756318 -0.36294413 -0.551797 140 140 140
0.5412389 -0.57283896 -0.5106409 130 130 130
0.556466 -0.56810844 -0.4386302 111 111 111
0.3692854 -0.58252764 -0.27315885 69 69 69
0.21046424 -0.57174164 -0.3578474 91 91 91
0.2555181 -0.57643574 -0.5076029 129 129 129
0.13520399 -0.57445306 -0.67457825 172 172 172
0.28722167 -0.5743426 -0.49559727 126 126 126
0.5504727 -0.5622156 -0.70201087 179 179 179
0.40092918 -0.5770282 -0.21008259 53 53 53
0.14691603 -0.5753601 -0.45429406 115 115 115
0.44845846 -0.56808954 -0.23414952 59 59 59
0.19043727 -0.57127386 -0.2885751 73 73 73
0.5320152 -0.55325633 -0.72367215 184 184 184
0.32973218 -0.5645757 -0.8279642 211 211 211
0.21343532 -0.3642825 -0.5488764 139 139 139
0.1868035 -0.36372054 -0.56989384 145 145 145
0.1794674 -0.3641557 -0.5534647 141 141 141
0.34470713 -0.58097047 -0.46552613 118 118 118
0.24074104 -0.57441396 -0.49746287 126 126 126
0.15023471 -0.57550687 -0.33161992 84 84 84
0.14619088 -0.5766127 -0.5321875 135 135 135
0.13002741 -0.57314837 -0.55908257 142 142 142
0.23311701 -0.5697831 -0.5178105 132 132 132
0.4764592 -0.5663299 -0.76045233 193 193 193
0.1206618 -0.5673623 -0.79642224 203 203 203
0.18763205 -0.36371905 -0.5666671 144 144 144
0.13508338 -0.5638289 -0.8035966 204 204 204
0.12069186 -0.5627943 -0.8023149 204 204 204
0.18193631 -0.36222833 -0.5567908 141 141 141
0.11056159 -0.57218724 -0.44763374 114 114 114
0.40702093 -0.57077205 -0.21978763 56 56 56
0.1497009 -0.57034177 -0.8233658 209 209 209
0.436602 -0.5686466 -0.29014271 73 73 73
0.3553232 -0.56829375 -0.17254049 43 43 43
0.18377335 -0.5670775 -0.84610105 215 215 215
0.23639092 -0.5751043 -0.47539893 121 121 121
0.53799915 -0.5664321 -0.6458106 164 164 164
0.42459193 -0.57424694 -0.18033695 45 45 45
0.19479547 -0.3648702 -0.5409635 137 137 137
0.15585323 -0.57310605 -0.60888404 155 155 155
0.41139764 -0.56733483 -0.20027673 51 51 51
0.3710933 -0.5637711 -0.213117 54 54 54
0.4222729 -0.5570698 -0.72425735 184 184 184
0.1174219 -0.57294136 -0.23130494 58 58 58
0.0913408 -0.57343924 -0.2138027 54 54 54
0.09503017 -0.56759983 -0.3287282 83 83 83
0.09635709 -0.5691438 -0.23252413 59 59 59
0.116771445 -0.57199305 -0.54535013 139 139 139
0.1354022 -0.569705 -0.33456713 85 85 85
0.13660109 -0.5694729 -0.7958835 202 202 202
0.067077585 -0.56766766 -0.21429777 54 54 54
0.56025887 -0.56138647 -0.6873563 175 175 175
0.13768189 -0.5813399 -0.627182 159 159 159
0.42186055 -0.57646024 -0.20170206 51 51 51
0.22294645 -0.5650402 -0.30326432 77 77 77
0.3273937 -0.58905804 -0.4859708 123 123 123
0.14983222 -0.5643827 -0.40714493 103 103 103
0.25168133 -0.5881903 -0.49313375 125 125 125
0.19457017 -0.57032007 -0.84531283 215 215 215
0.20574881 -0.56616545 -0.30002224 76 76 76
0.14406659 -0.57698125 -0.78263456 199 199 199
0.18088849 -0.57100016 -0.36305353 92 92 92
0.35855085 -0.5740958 -0.42880642 109 109 109
0.12415917 -0.5717993 -0.65273553 166 166 166
0.08519593 -0.57775956 -0.50293815 128 128 128
0.39919057 -0.5662866 -0.6886213 175 175 175
0.32007903 -0.5718891 -0.3347838 85 85 85
0.38076097 -0.57217515 -0.4048104 103 103 103
0.12376754 -0.56828463 -0.66572547 169 169 169
0.18584228 -0.56892645 -0.46375465 118 118 118
0.062367298 -0.57217836 -0.38182074 97 97 97
0.049651235 -0.56089556 -0.27071545 69 69 69
0.10533866 -0.5742851 -0.4209655 107 107 107
0.1334944 -0.5641597 -0.2517641 64 64 64
0.21426839 -0.5790076 -0.4926205 125 125 125
0.12131503 -0.56741494 -0.64860487 165 165 165
0.26183745 -0.5549314 -0.38891888 99 99 99
0.08237975 -0.56762093 -0.7444072 189 189 189
0.33436918 -0.56825894 -0.43382147 110 110 110
0.47750777 -0.56394434 -0.6521784 166 166 166
0.4635846 -0.5640273 -0.6462653 164 164 164
0.23129542 -0.57008356 -0.27171066 69 69 69
0.0483229 -0.5777316 -0.37213838 94 94 94
0.3465848 -0.5631091 -0.7092533 180 180 180
0.51176727 -0.55962247 -0.6689592 170 170 170
-0.004321635 -0.5718658 -0.3308227 84 84 84
0.31660706 -0.5590591 -0.37698218 96 96 96
0.10590771 -0.5634397 -0.2189601 55 55 55
0.39900738 -0.5670007 -0.67907506 173 173 173
0.108419165 -0.57085073 -0.797642 203 203 203
0.075028904 -0.57607174 -0.4814485 122 122 122
0.33151948 -0.56782776 -0.70081866 178 178 178
0.5129959 -0.55701536 -0.7842536 199 199 199
0.13491043 -0.56379324 -0.4461916 113 113 113
-0.0069317073 -0.56192094 -0.33786106 86 86 86
0.29841363 -0.5749264 -0.13168207 33 33 33
0.24401003 -0.56921256 -0.3945427 100 100 100
0.26848763 -0.5675819 -0.34160462 87 87 87
-0.0270617 -0.5753246 -0.32432956 82 82 82
0.27995425 -0.5683241 -0.30712825 78 78 78
0.32810855 -0.57589394 -0.46068925 117 117 117
0.3257025 -0.57946074 -0.36445796 92 92 92
0.10110204 -0.57154375 -0.68024755 173 173 173
0.5285959 -0.5721528 -0.5014478 127 127 127
0.20869187 -0.3631801 -0.5376438 137 137 137
0.21403703 -0.363532 -0.54111433 137 137 137
0.17980525 -0.57500494 -0.45791394 116 116 116
0.34703133 -0.57508224 -0.29139966 74 74 74
0.53996754 -0.57234514 -0.50820273 129 129 129
0.5545258 -0.5664728 -0.4366245 111 111 111
0.3671541 -0.58006436 -0.2701305 68 68 68
0.25378954 -0.57425714 -0.50558686 128 128 128
0.13378541 -0.57449716 -0.6728307 171 171 171
0.2844575 -0.5756364 -0.49381825 125 125 125
0.55193007 -0.56532997 -0.7003298 178 178 178
0.3990824 -0.5743714 -0.20828688 53 53 53
0.14520003 -0.57355446 -0.4523965 115 115 115
0.44696385 -0.56648934 -0.23108733 58 58 58
0.1883508 -0.57125485 -0.28597733 72 72 72
0.5316603 -0.5553833 -0.7219796 184 184 184
0.18592328 -0.36159778 -0.5678623 144 144 144
0.17826119 -0.36213708 -0.5509004 140 140 140
0.34242094 -0.5821349 -0.46168426 117 117 117
0.23935717 -0.5710522 -0.4956783 126 126 126
0.14838606 -0.5738383 -0.32991344 84 84 84
0.14449328 -0.5751758 -0.5298964 135 135 135
0.16007859 -0.5716882 -0.45931655 117 117 117
0.12943013 -0.57140106 -0.5573932 142 142 142
0.23166779 -0.56728774 -0.51568866 131 131 131
0.47543618 -0.5647439 -0.7577732 193 193 193
0.11892609 -0.5662605 -0.79481685 202 202 202
0.18575047 -0.36191857 -0.5629193 143 143 143
0.13369195 -0.56210333 -0.80165803 204 204 204
0.11928007 -0.5614134 -0.8005798 204 204 204
0.109205015 -0.5708157 -0.44573283 113 113 113
0.40484816 -0.570284 -0.21523285 54 54 54
0.14893173 -0.5680393 -0.8213983 209 209 209
0.43519366 -0.5667905 -0.28753954 73 73 73
0.35364997 -0.56640315 -0.16997167 43 43 43
0.23466614 -0.5744803 -0.47257325 120 120 120
0.5365525 -0.5639403 -0.6425448 163 163 163
0.4227967 -0.5695796 -0.17864046 45 45 45
0.19351533 -0.36336774 -0.53816146 137 137 137
0.15366648 -0.57345134 -0.60725474 154 154 154
0.40956843 -0.5680709 -0.19657326 50 50 50
0.36932456 -0.5627178 -0.21135241 53 53 53
0.42101112 -0.5581084 -0.7222501 184 184 184
0.11501512 -0.5711056 -0.22921944 58 58 58
0.08870662 -0.5726773 -0.21113086 53 53 53
0.092465684 -0.5676332 -0.32648087 83 83 83
0.09298466 -0.57012665 -0.22927392 58 58 58
0.11733335 -0.56374943 -0.54282117 138 138 138
0.13340119 -0.5689431 -0.33232337 84 84 84
0.13547112 -0.5678943 -0.7932925 202 202 202
0.06393101 -0.56836206 -0.2111421 53 53 53
0.5610549 -0.5644929 -0.68526 174 174 174
0.13618124 -0.5786946 -0.6249346 159 159 159
0.42033496 -0.57393235 -0.19841519 50 50 50
0.22065693 -0.5657806 -0.30035502 76 76 76
0.14693907 -0.56360275 -0.4053265 103 103 103
0.14265046 -0.5746005 -0.7800378 198 198 198
0.17864043 -0.56939477 -0.36096525 92 92 92
0.35729676 -0.5726166 -0.42610925 108 108 108
0.12300275 -0.56764454 -0.65037227 165 165 165
0.083401255 -0.57575375 -0.5008218 127 127 127
0.3983024 -0.5660383 -0.686077 174 174 174
0.3186587 -0.570601 -0.3321157 84 84 84
0.379592 -0.5711753 -0.40210235 102 102 102
0.12234669 -0.56702816 -0.6642249 169 169 169
0.18420249 -0.5707825 -0.461147 117 117 117
0.061429635 -0.57119524 -0.3810475 97 97 97
0.046974868 -0.5597179 -0.26902214 68 68 68
0.1030698 -0.5730914 -0.4182613 106 106 106
0.13063657 -0.5641176 -0.24862549 63 63 63
0.33287627 -0.5669778 -0.43044665 109 109 109
0.4780582 -0.5671046 -0.65005744 165 165 165
0.46350724 -0.5664706 -0.64393663 164 164 164
0.22986804 -0.5689602 -0.26933354 68 68 68
0.06228229 -0.5787841 -0.48923934 124 124 124
0.045692913 -0.57850075 -0.3695162 94 94 94
0.51219624 -0.56157875 -0.6667915 170 170 170
-0.008234784 -0.57619107 -0.3272829 83 83 83
0.10283751 -0.5667908 -0.2148228 54 54 54
0.39884725 -0.56981564 -0.6772247 172 172 172
0.33016092 -0.5668135 -0.6983718 178 178 178
0.5175728 -0.5702823 -0.7861747 200 200 200
0.103451066 -0.56487983 -0.78336936 199 199 199
0.13272305 -0.56503856 -0.4442451 113 113 113
-0.011582762 -0.5652221 -0.33468089 85 85 85
0.29665476 -0.57670224 -0.12657732 32 32 32
0.26647568 -0.5691379 -0.33874786 86 86 86
0.023195073 -0.5740931 -0.41761744 106 106 106
-0.03163129 -0.5795847 -0.3206259 81 81 81
-0.012104221 -0.57821095 -0.39375073 100 100 100
0.27817333 -0.56922764 -0.3034801 77 77 77
0.34677267 -0.5709567 -0.43374845 110 110 110
0.006838985 -0.5699264 -0.46245703 117 117 117
0.34098017 -0.568952 -0.41141903 104 104 104
0.35335356 -0.57301027 -0.4143362 105 105 105
0.19795097 -0.5712066 -0.2830027 72 72 72
0.36580485 -0.57345104 -0.27183703 69 69 69
0.4233539 -0.57331324 -0.42973176 109 109 109
0.091121495 -0.571492 -0.32458726 82 82 82
0.0054494366 -0.563339 -0.33802086 86 86 86
0.3302117 -0.5748528 -0.45904726 117 117 117
0.3275488 -0.5787098 -0.36243463 92 92 92
0.10353169 -0.57304 -0.67893875 173 173 173
0.20967987 -0.36332035 -0.53649116 136 136 136
0.21522447 -0.36348283 -0.53949916 137 137 137
0.34821168 -0.57385224 -0.29016557 73 73 73
0.13527083 -0.5706537 -0.66960925 170 170 170
0.14713372 -0.5736509 -0.4505996 114 114 114
0.53086776 -0.550501 -0.7185203 183 183 183
0.18691999 -0.36108798 -0.5656678 144 144 144
0.17958607 -0.36219168 -0.5494498 140 140 140
0.34371382 -0.5823621 -0.45924094 117 117 117
0.15013602 -0.57393694 -0.32813993 83 83 83
0.14573072 -0.57383704 -0.5278562 134 134 134
0.1617838 -0.5724726 -0.4579354 116 116 116
0.12209733 -0.5693443 -0.79435813 202 202 202
0.18771702 -0.36231887 -0.5626157 143 143 143
0.13673925 -0.5636373 -0.80054873 204 204 204
0.122219265 -0.56278884 -0.7995817 203 203 203
0.11114518 -0.5712776 -0.44408196 113 113 113
0.15163705 -0.56750697 -0.8189447 208 208 208
0.23602504 -0.5729792 -0.47132233 120 120 120
0.19446734 -0.36305702 -0.53688735 136 136 136
0.15606752 -0.57469875 -0.6062643 154 154 154
0.42092076 -0.55356175 -0.7193409 183 183 183
0.11733566 -0.5713189 -0.22822013 58 58 58
0.0907813 -0.5731969 -0.20960179 53 53 53
0.09454774 -0.5689956 -0.3244089 82 82 82
0.095666975 -0.57180583 -0.22747669 58 58 58
0.11775473 -0.56123084 -0.54164827 138 138 138
0.13527158 -0.5703208 -0.3305092 84 84 84
0.13812682 -0.57006484 -0.79222655 202 202 202
0.22322786 -0.5675652 -0.29791117 75 75 75
0.1487625 -0.56325454 -0.40323377 102 102 102
0.14690757 -0.57908577 -0.7800094 198 198 198
0.18094474 -0.5697032 -0.3594835 91 91 91
0.12545098 -0.56921005 -0.6488158 165 165 165
0.0856505 -0.5799635 -0.49955812 127 127 127
0.3986109 -0.563443 -0.68267304 174 174 174
0.12460126 -0.5675132 -0.66265357 168 168 168
0.18593757 -0.5687055 -0.45999363 117 117 117
0.06345699 -0.57033235 -0.37941563 96 96 96
0.049315132 -0.5592908 -0.2679194 68 68 68
0.1057374 -0.5709683 -0.41780582 106 106 106
0.33503538 -0.56722516 -0.42829698 109 109 109
0.2313809 -0.57155335 -0.26736733 68 68 68
0.06393707 -0.5800769 -0.48731196 124 124 124
0.048902184 -0.57372284 -0.36912364 94 94 94
-0.006288588 -0.57782716 -0.32544822 82 82 82
0.10480982 -0.56443137 -0.21470016 54 54 54
0.39678437 -0.5619062 -0.6736491 171 171 171
0.32961905 -0.5603666 -0.6948342 177 177 177
0.13377863 -0.56207633 -0.44263238 112 112 112
-0.009262085 -0.5658063 -0.33390826 85 85 85
0.26824802 -0.5677966 -0.33775392 86 86 86
0.109849766 -0.57402575 -0.77937794 198 198 198
0.02535744 -0.57597 -0.4153687 105 105 105
-0.028941631 -0.57865 -0.3192749 81 81 81
-0.011186108 -0.5839464 -0.39093328 99 99 99
0.2795825 -0.56919837 -0.30220664 77 77 77
0.34812474 -0.56873393 -0.43359107 110 110 110
0.008665189 -0.5749364 -0.46020475 117 117 117
0.34048903 -0.5633099 -0.41069776 104 104 104
0.20025821 -0.5730766 -0.28072023 71 71 71
0.42219743 -0.567155 -0.4278653 109 109 109
0.01966086 -0.5731694 -0.45962107 117 117 117
0.09349601 -0.57345015 -0.32301873 82 82 82
0.0072856247 -0.5664891 -0.33608824 85 85 85
0.07736731 -0.57096356 -0.2167449 55 55 55
0.008159384 -0.5685453 -0.22359738 57 57 57
0.010201171 -0.57640356 -0.37939662 96 96 96
-0.07280378 -0.5832391 -0.28167906 71 71 71
0.06702345 -0.5710234 -0.1879108 47 47 47
0.08738029 -0.5643159 -0.21637407 55 55 55
0.08049576 -0.57207686 -0.17703566 45 45 45
-0.019739717 -0.5769601 -0.22582698 57 57 57
0.044234112 -0.57471377 -0.18159914 46 46 46
0.32637012 -0.57780635 -0.36192465 92 92 92
0.103625715 -0.57099664 -0.6766715 172 172 172
0.21062735 -0.3646085 -0.53578025 136 136 136
0.21676958 -0.36411074 -0.5388201 137 137 137
0.3479499 -0.5690794 -0.29110247 74 74 74
0.36609423 -0.57552445 -0.27036732 68 68 68
0.13665481 -0.5712451 -0.6689927 170 170 170
0.40086162 -0.5769733 -0.20411065 52 52 52
0.14844745 -0.5690187 -0.45047945 114 114 114
0.5340532 -0.55250704 -0.7171496 182 182 182
0.18781236 -0.3616549 -0.5649321 144 144 144
0.18076025 -0.3625949 -0.54890174 139 139 139
0.15137422 -0.56966615 -0.32843006 83 83 83
0.18877283 -0.36229748 -0.5621794 143 143 143
0.11185348 -0.5665225 -0.44269267 112 112 112
0.40714726 -0.56937766 -0.21370041 54 54 54
0.15370798 -0.5603608 -0.8150384 207 207 207
0.35683885 -0.5680562 -0.16731286 42 42 42
0.2364254 -0.5704273 -0.47038 119 119 119
0.19573507 -0.3648797 -0.53594345 136 136 136
0.118807554 -0.5706301 -0.22751918 58 58 58
0.0924961 -0.5716704 -0.20961791 53 53 53
0.09553747 -0.5681926 -0.32367247 82 82 82
0.13623501 -0.5701606 -0.32927752 83 83 83
0.22476543 -0.567389 -0.2973644 75 75 75
0.15090674 -0.5766301 -0.40034926 102 102 102
0.18220636 -0.5634445 -0.3597867 91 91 91
0.35963255 -0.57242656 -0.42494443 108 108 108
0.12803371 -0.5646144 -0.6486392 165 165 165
0.08859545 -0.56700647 -0.49982366 127 127 127
0.39955878 -0.56345475 -0.6820548 173 173 173
0.12703955 -0.56261384 -0.66015 168 168 168
0.33583245 -0.56735206 -0.429448 109 109 109
0.47882295 -0.56603384 -0.6466706 164 164 164
0.46537358 -0.5668998 -0.6407417 163 163 163
0.23252931 -0.569072 -0.26714626 68 68 68
0.5183219 -0.5704831 -0.6660264 169 169 169
0.10612522 -0.57116234 -0.21082705 53 53 53
0.40080386 -0.56833804 -0.67322904 171 171 171
0.33173224 -0.5629282 -0.693835 176 176 176
0.13579544 -0.5613141 -0.44142795 112 112 112
0.29828435 -0.5700028 -0.1280854 32 32 32
0.27002186 -0.56897116 -0.33643726 85 85 85
0.029191107 -0.56565773 -0.41708863 106 106 106
0.2810617 -0.5692309 -0.30129662 76 76 76
0.44411266 -0.5626277 -0.62646955 159 159 159
0.2012519 -0.5706184 -0.28113478 71 71 71
0.4589111 -0.55480397 -0.7412143 189 189 189
0.14909941 -0.55985844 -0.77296627 197 197 197
0.2047822 -0.55568075 -0.7235459 184 184 184
0.07941009 -0.57002735 -0.2167835 55 55 55
0.010318607 -0.56456375 -0.22452748 57 57 57
0.29424503 -0.5630915 -0.6624686 168 168 168
0.26307395 -0.566785 -0.34047025 86 86 86
0.23807463 -0.5699378 -0.48156053 122 122 122
0.17034012 -0.5642986 -0.44729996 114 114 114
0.06813702 -0.5717374 -0.18644345 47 47 47
0.087711886 -0.56408405 -0.50821877 129 129 129
0.30508786 -0.5704 -0.3568304 90 90 90
0.045528665 -0.5729908 -0.18085086 46 46 46
0.26722577 -0.5603814 -0.68158126 173 173 173
0.14158866 -0.5575981 -0.7678834 195 195 195
0.14861424 -0.5626122 -0.71508074 182 182 182
0.3155929 -0.5734447 -0.17181528 43 43 43
